416.000000 -113.897787 198.020556
416.000000 -115.895994 197.935882
416.000000 -117.894200 197.851208
416.000000 -119.892407 197.766534
416.000000 -121.890614 197.681861
416.000000 -123.888821 197.597187
416.000000 -125.887027 197.512513
416.000000 -127.885234 197.427839
416.000000 -129.883441 197.343166
416.000000 -131.881648 197.258492
416.000000 -133.879855 197.173818
416.000000 -135.878061 197.089144
416.000000 -137.876268 197.004471
416.000000 -139.874475 196.919797
416.000000 -141.872682 196.835123
416.000000 -143.870889 196.750450
416.000000 -145.869095 196.665776
416.000000 -147.867302 196.581102
416.000000 -149.865509 196.496428
416.000000 -151.863716 196.411755
416.000000 -153.861922 196.327081
416.000000 -155.860129 196.242407
416.000000 -157.858336 196.157733
416.000000 -159.856543 196.073060
416.000000 -161.854750 195.988386
416.000000 -163.852956 195.903712
416.000000 -165.851163 195.819038
416.000000 -167.849370 195.734365
416.000000 -169.847577 195.649691
416.000000 -171.845784 195.565017
416.000000 -173.843990 195.480343
416.000000 -175.842197 195.395670
416.000000 -177.840404 195.310996
416.000000 -179.838611 195.226322
416.000000 -181.836817 195.141649
416.000000 -183.835024 195.056975
416.000000 -185.833231 194.972301
416.000000 -187.831438 194.887627
416.000000 -189.829645 194.802954
416.000000 -191.827851 194.718280
416.000000 -193.826058 194.633606
416.000000 -195.824265 194.548932
416.000000 -197.822472 194.464259
416.000000 -199.820679 194.379585
416.000000 -201.818885 194.294911
416.000000 -203.817092 194.210237
416.000000 -205.815299 194.125564
416.000000 -207.813506 194.040890
416.000000 -209.811712 193.956216
416.000000 -211.809919 193.871542
416.000000 -213.808126 193.786869
416.000000 -215.806333 193.702195
416.000000 -217.804540 193.617521
416.000000 -219.802746 193.532848
416.000000 -221.800953 193.448174
416.000000 -223.799160 193.363500
416.000000 -225.797367 193.278826
416.000000 -227.795574 193.194153
416.000000 -229.793780 193.109479
416.000000 -231.791987 193.024805
416.000000 -233.790194 192.940131
416.000000 -235.788401 192.855458
416.000000 -237.786607 192.770784
416.000000 -239.784814 192.686110
416.000000 -241.783021 192.601436
416.000000 -243.781228 192.516763
416.000000 -245.779435 192.432089
416.000000 -247.777641 192.347415
416.000000 -249.775848 192.262742
416.000000 -251.774055 192.178068
416.000000 -253.772262 192.093394
416.000000 -255.770469 192.008720
416.000000 -257.768675 191.924047
416.000000 -259.766882 191.839373
416.000000 -261.765089 191.754699
416.000000 -263.763296 191.670025
416.000000 -265.761502 191.585352
416.000000 -267.759709 191.500678
416.000000 -269.757916 191.416004
416.000000 -271.756123 191.331330
416.000000 -273.754330 191.246657
416.000000 -275.752536 191.161983
416.000000 -277.750743 191.077309
416.000000 -279.748950 190.992635
416.000000 -281.747157 190.907962
416.000000 -283.745364 190.823288
416.000000 -285.743570 190.738614
416.000000 -287.741777 190.653941
416.000000 -289.739984 190.569267
416.000000 -291.738191 190.484593
416.000000 -293.736397 190.399919
416.000000 -295.734604 190.315246
416.000000 -297.732811 190.230572
416.000000 -300.000000 190.134500
416.000000 -300.000000 190.134500
414.562493 -299.879578 191.519806
413.124987 -299.759155 192.905112
411.687480 -299.638733 194.290418
410.249973 -299.518311 195.675724
408.812467 -299.397889 197.061031
407.374960 -299.277466 198.446337
405.937453 -299.157044 199.831643
404.499947 -299.036622 201.216949
403.062440 -298.916199 202.602255
401.624933 -298.795777 203.987561
400.187427 -298.675355 205.372867
398.749920 -298.554933 206.758173
397.312413 -298.434510 208.143480
395.874907 -298.314088 209.528786
394.437400 -298.193666 210.914092
392.999893 -298.073244 212.299398
391.562387 -297.952821 213.684704
390.124880 -297.832399 215.070010
388.687373 -297.711977 216.455316
387.249867 -297.591554 217.840622
385.812360 -297.471132 219.225929
384.374853 -297.350710 220.611235
382.937347 -297.230288 221.996541
381.499840 -297.109865 223.381847
380.062333 -296.989443 224.767153
378.624827 -296.869021 226.152459
377.187320 -296.748598 227.537765
375.749813 -296.628176 228.923071
374.312307 -296.507754 230.308378
372.874800 -296.387332 231.693684
371.437293 -296.266909 233.078990
369.999787 -296.146487 234.464296
368.562280 -296.026065 235.849602
367.124773 -295.905643 237.234908
365.687267 -295.785220 238.620214
364.249760 -295.664798 240.005520
362.812253 -295.544376 241.390826
361.374747 -295.423953 242.776133
359.937240 -295.303531 244.161439
358.499733 -295.183109 245.546745
357.062227 -295.062687 246.932051
355.624720 -294.942264 248.317357
354.187213 -294.821842 249.702663
352.749707 -294.701420 251.087969
351.312200 -294.580997 252.473275
349.874693 -294.460575 253.858582
348.437187 -294.340153 255.243888
346.999680 -294.219731 256.629194
345.562173 -294.099308 258.014500
344.124666 -293.978886 259.399806
342.687160 -293.858464 260.785112
341.249653 -293.738041 262.170418
339.812146 -293.617619 263.555724
338.374640 -293.497197 264.941031
336.937133 -293.376775 266.326337
335.499626 -293.256352 267.711643
334.062120 -293.135930 269.096949
332.624613 -293.015508 270.482255
331.187106 -292.895086 271.867561
329.749600 -292.774663 273.252867
328.312093 -292.654241 274.638173
326.874586 -292.533819 276.023479
325.437080 -292.413396 277.408786
323.999573 -292.292974 278.794092
322.562066 -292.172552 280.179398
321.124560 -292.052130 281.564704
319.687053 -291.931707 282.950010
318.249546 -291.811285 284.335316
316.812040 -291.690863 285.720622
315.374533 -291.570440 287.105928
313.937026 -291.450018 288.491235
312.499520 -291.329596 289.876541
311.062013 -291.209174 291.261847
309.624506 -291.088751 292.647153
308.187000 -290.968329 294.032459
306.749493 -290.847907 295.417765
305.311986 -290.727485 296.803071
303.874480 -290.607062 298.188377
302.436973 -290.486640 299.573684
300.999466 -290.366218 300.958990
299.561960 -290.245795 302.344296
298.124453 -290.125373 303.729602
296.686946 -290.004951 305.114908
295.249440 -289.884529 306.500214
293.811933 -289.764106 307.885520
292.374426 -289.643684 309.270826
290.936920 -289.523262 310.656133
289.499413 -289.402839 312.041439
288.061906 -289.282417 313.426745
286.624400 -289.161995 314.812051
285.186893 -289.041573 316.197357
283.749386 -288.921150 317.582663
282.311880 -288.800728 318.967969
280.874373 -288.680306 320.353275
279.436866 -288.559883 321.738581
277.999360 -288.439461 323.123888
276.561853 -288.319039 324.509194
275.124346 -288.198617 325.894500
272.753417 -288.000000 328.179333
272.753417 -288.000000 328.179333
270.780525 -287.872523 328.481734
268.807632 -287.745046 328.784135
266.834740 -287.617569 329.086535
264.861848 -287.490092 329.388936
262.888956 -287.362615 329.691337
260.916064 -287.235138 329.993737
258.943172 -287.107661 330.296138
256.970279 -286.980184 330.598539
254.997387 -286.852707 330.900939
253.024495 -286.725230 331.203340
251.051603 -286.597753 331.505741
249.078711 -286.470276 331.808141
247.105819 -286.342799 332.110542
245.132927 -286.215322 332.412943
243.160034 -286.087845 332.715343
241.187142 -285.960368 333.017744
239.214250 -285.832891 333.320145
237.241358 -285.705414 333.622545
235.268466 -285.577937 333.924946
233.295574 -285.450460 334.227347
231.322681 -285.322983 334.529748
229.349789 -285.195506 334.832148
227.376897 -285.068029 335.134549
225.404005 -284.940552 335.436950
223.431113 -284.813075 335.739350
221.458221 -284.685598 336.041751
219.485329 -284.558121 336.344152
217.512436 -284.430644 336.646552
215.539544 -284.303167 336.948953
213.566652 -284.175690 337.251354
211.593760 -284.048213 337.553754
209.620868 -283.920736 337.856155
207.647976 -283.793259 338.158556
205.675083 -283.665782 338.460956
203.702191 -283.538305 338.763357
201.729299 -283.410828 339.065758
199.756407 -283.283351 339.368158
197.783515 -283.155874 339.670559
195.810623 -283.028397 339.972960
193.837731 -282.900920 340.275360
191.864838 -282.773443 340.577761
189.891946 -282.645966 340.880162
187.919054 -282.518489 341.182562
185.946162 -282.391012 341.484963
183.973270 -282.263535 341.787364
182.000378 -282.136058 342.089764
180.027485 -282.008581 342.392165
178.054593 -281.881104 342.694566
176.081701 -281.753627 342.996966
174.108809 -281.626150 343.299367
172.135917 -281.498673 343.601768
170.163025 -281.371196 343.904168
168.190133 -281.243719 344.206569
166.217240 -281.116242 344.508970
164.244348 -280.988765 344.811370
162.271456 -280.861288 345.113771
160.298564 -280.733811 345.416172
158.325672 -280.606334 345.718572
156.352780 -280.478857 346.020973
154.379888 -280.351380 346.323374
152.406995 -280.223903 346.625774
150.434103 -280.096426 346.928175
148.461211 -279.968949 347.230576
146.488319 -279.841472 347.532977
144.515427 -279.713995 347.835377
142.542535 -279.586518 348.137778
140.569642 -279.459041 348.440179
138.596750 -279.331564 348.742579
136.623858 -279.204087 349.044980
134.650966 -279.076610 349.347381
132.678074 -278.949133 349.649781
130.705182 -278.821656 349.952182
128.732290 -278.694179 350.254583
126.759397 -278.566702 350.556983
124.786505 -278.439225 350.859384
122.813613 -278.311748 351.161785
120.840721 -278.184271 351.464185
118.867829 -278.056794 351.766586
116.894937 -277.929317 352.068987
114.922044 -277.801840 352.371387
112.949152 -277.674363 352.673788
110.976260 -277.546886 352.976189
109.003368 -277.419409 353.278589
107.030476 -277.291932 353.580990
105.057584 -277.164455 353.883391
103.084692 -277.036978 354.185791
101.111799 -276.909501 354.488192
99.138907 -276.782024 354.790593
97.166015 -276.654547 355.092993
95.193123 -276.527070 355.395394
93.220231 -276.399593 355.697795
91.247339 -276.272116 356.000195
89.274446 -276.144639 356.302596
87.301554 -276.017162 356.604997
85.328662 -275.889685 356.907397
83.355770 -275.762208 357.209798
81.382878 -275.634731 357.512199
79.409986 -275.507254 357.814599
77.437094 -275.379777 358.117000
75.464201 -275.252300 358.419401
73.491309 -275.124823 358.721801
71.518417 -274.997346 359.024202
69.545525 -274.869869 359.326603
67.572633 -274.742392 359.629004
65.599741 -274.614915 359.931404
63.626848 -274.487438 360.233805
61.653956 -274.359961 360.536206
59.681064 -274.232484 360.838606
57.708172 -274.105007 361.141007
55.735280 -273.977530 361.443408
53.762388 -273.850053 361.745808
51.789496 -273.722576 362.048209
49.816603 -273.595099 362.350610
47.843711 -273.467622 362.653010
45.870819 -273.340145 362.955411
43.897927 -273.212668 363.257812
41.925035 -273.085191 363.560212
39.952143 -272.957714 363.862613
37.979250 -272.830237 364.165014
36.006358 -272.702760 364.467414
34.033466 -272.575283 364.769815
32.060574 -272.447806 365.072216
30.087682 -272.320329 365.374616
28.114790 -272.192852 365.677017
25.130125 -272.000000 366.134500
25.130125 -272.000000 366.134500
23.178833 -272.000000 365.695798
21.227541 -272.000000 365.257095
19.276249 -272.000000 364.818393
17.324957 -272.000000 364.379690
15.373665 -272.000000 363.940988
13.422373 -272.000000 363.502285
11.471082 -272.000000 363.063583
9.519790 -272.000000 362.624880
7.568498 -272.000000 362.186178
5.617206 -272.000000 361.747476
3.665914 -272.000000 361.308773
1.714622 -272.000000 360.870071
-0.236670 -272.000000 360.431368
-2.187962 -272.000000 359.992666
-4.139254 -272.000000 359.553963
-6.090546 -272.000000 359.115261
-8.041838 -272.000000 358.676558
-9.993130 -272.000000 358.237856
-11.944422 -272.000000 357.799154
-13.895713 -272.000000 357.360451
-15.847005 -272.000000 356.921749
-17.798297 -272.000000 356.483046
-19.749589 -272.000000 356.044344
-21.700881 -272.000000 355.605641
-23.652173 -272.000000 355.166939
-25.603465 -272.000000 354.728236
-27.554757 -272.000000 354.289534
-29.506049 -272.000000 353.850832
-31.457341 -272.000000 353.412129
-33.408633 -272.000000 352.973427
-35.359925 -272.000000 352.534724
-37.311217 -272.000000 352.096022
-39.262508 -272.000000 351.657319
-41.213800 -272.000000 351.218617
-43.165092 -272.000000 350.779914
-45.116384 -272.000000 350.341212
-47.067676 -272.000000 349.902510
-49.018968 -272.000000 349.463807
-50.970260 -272.000000 349.025105
-52.921552 -272.000000 348.586402
-54.872844 -272.000000 348.147700
-56.824136 -272.000000 347.708997
-58.775428 -272.000000 347.270295
-60.726720 -272.000000 346.831592
-62.678011 -272.000000 346.392890
-64.629303 -272.000000 345.954188
-66.580595 -272.000000 345.515485
-68.531887 -272.000000 345.076783
-70.483179 -272.000000 344.638080
-72.434471 -272.000000 344.199378
-74.385763 -272.000000 343.760675
-76.337055 -272.000000 343.321973
-78.288347 -272.000000 342.883270
-80.239639 -272.000000 342.444568
-82.190931 -272.000000 342.005866
-84.142223 -272.000000 341.567163
-86.093515 -272.000000 341.128461
-88.044806 -272.000000 340.689758
-89.996098 -272.000000 340.251056
-91.947390 -272.000000 339.812353
-93.898682 -272.000000 339.373651
-95.849974 -272.000000 338.934948
-97.801266 -272.000000 338.496246
-99.752558 -272.000000 338.057544
-101.703850 -272.000000 337.618841
-103.655142 -272.000000 337.180139
-105.606434 -272.000000 336.741436
-107.557726 -272.000000 336.302734
-109.509018 -272.000000 335.864031
-111.460310 -272.000000 335.425329
-113.411601 -272.000000 334.986626
-115.362893 -272.000000 334.547924
-117.314185 -272.000000 334.109222
-119.265477 -272.000000 333.670519
-121.216769 -272.000000 333.231817
-123.168061 -272.000000 332.793114
-125.119353 -272.000000 332.354412
-127.070645 -272.000000 331.915709
-129.021937 -272.000000 331.477007
-130.973229 -272.000000 331.038304
-132.924521 -272.000000 330.599602
-134.875813 -272.000000 330.160900
-136.827105 -272.000000 329.722197
-138.778396 -272.000000 329.283495
-140.729688 -272.000000 328.844792
-142.680980 -272.000000 328.406090
-144.632272 -272.000000 327.967387
-146.583564 -272.000000 327.528685
-148.534856 -272.000000 327.089982
-150.486148 -272.000000 326.651280
-152.437440 -272.000000 326.212578
-154.388732 -272.000000 325.773875
-156.340024 -272.000000 325.335173
-158.291316 -272.000000 324.896470
-160.242608 -272.000000 324.457768
-162.193900 -272.000000 324.019065
-164.145191 -272.000000 323.580363
-166.096483 -272.000000 323.141660
-168.047775 -272.000000 322.702958
-169.999067 -272.000000 322.264256
-171.950359 -272.000000 321.825553
-173.901651 -272.000000 321.386851
-175.852943 -272.000000 320.948148
-177.804235 -272.000000 320.509446
-179.755527 -272.000000 320.070743
-181.706819 -272.000000 319.632041
-183.658111 -272.000000 319.193338
-185.609403 -272.000000 318.754636
-187.560695 -272.000000 318.315934
-189.511986 -272.000000 317.877231
-191.463278 -272.000000 317.438529
-193.414570 -272.000000 316.999826
-195.365862 -272.000000 316.561124
-197.317154 -272.000000 316.122421
-199.268446 -272.000000 315.683719
-201.219738 -272.000000 315.245016
-203.171030 -272.000000 314.806314
-205.122322 -272.000000 314.367612
-207.073614 -272.000000 313.928909
-209.024906 -272.000000 313.490207
-210.976198 -272.000000 313.051504
-212.927489 -272.000000 312.612802
-214.878781 -272.000000 312.174099
-216.830073 -272.000000 311.735397
-218.781365 -272.000000 311.296694
-220.732657 -272.000000 310.857992
-222.683949 -272.000000 310.419290
-224.635241 -272.000000 309.980587
-226.586533 -272.000000 309.541885
-228.537825 -272.000000 309.103182
-230.489117 -272.000000 308.664480
-232.440409 -272.000000 308.225777
-234.391701 -272.000000 307.787075
-236.342993 -272.000000 307.348372
-238.294284 -272.000000 306.909670
-240.245576 -272.000000 306.470968
-242.196868 -272.000000 306.032265
-244.148160 -272.000000 305.593563
-246.099452 -272.000000 305.154860
-248.050744 -272.000000 304.716158
-250.002036 -272.000000 304.277455
-251.953328 -272.000000 303.838753
-253.904620 -272.000000 303.400050
-255.855912 -272.000000 302.961348
-257.807204 -272.000000 302.522646
-259.758496 -272.000000 302.083943
-261.709788 -272.000000 301.645241
-263.661079 -272.000000 301.206538
-265.612371 -272.000000 300.767836
-267.563663 -272.000000 300.329133
-269.514955 -272.000000 299.890431
-271.466247 -272.000000 299.451728
-273.417539 -272.000000 299.013026
-275.368831 -272.000000 298.574324
-277.320123 -272.000000 298.135621
-279.271415 -272.000000 297.696919
-281.222707 -272.000000 297.258216
-283.173999 -272.000000 296.819514
-285.125291 -272.000000 296.380811
-288.000000 -272.000000 295.734500
-288.000000 -272.000000 295.734500
-288.059705 -270.646695 294.263106
-288.119409 -269.293389 292.791712
-288.179114 -267.940084 291.320319
-288.238819 -266.586778 289.848925
-288.298523 -265.233473 288.377531
-288.358228 -263.880167 286.906137
-288.417933 -262.526862 285.434743
-288.477637 -261.173556 283.963350
-288.537342 -259.820251 282.491956
-288.597047 -258.466945 281.020562
-288.656751 -257.113640 279.549168
-288.716456 -255.760335 278.077774
-288.776160 -254.407029 276.606381
-288.835865 -253.053724 275.134987
-288.895570 -251.700418 273.663593
-288.955274 -250.347113 272.192199
-289.014979 -248.993807 270.720805
-289.074684 -247.640502 269.249412
-289.134388 -246.287196 267.778018
-289.194093 -244.933891 266.306624
-289.253798 -243.580585 264.835230
-289.313502 -242.227280 263.363837
-289.373207 -240.873975 261.892443
-289.432912 -239.520669 260.421049
-289.492616 -238.167364 258.949655
-289.552321 -236.814058 257.478261
-289.612026 -235.460753 256.006868
-289.671730 -234.107447 254.535474
-289.731435 -232.754142 253.064080
-289.791140 -231.400836 251.592686
-289.850844 -230.047531 250.121292
-289.910549 -228.694225 248.649899
-289.970254 -227.340920 247.178505
-290.029958 -225.987615 245.707111
-290.089663 -224.634309 244.235717
-290.149367 -223.281004 242.764323
-290.209072 -221.927698 241.292930
-290.268777 -220.574393 239.821536
-290.328481 -219.221087 238.350142
-290.388186 -217.867782 236.878748
-290.447891 -216.514476 235.407354
-290.507595 -215.161171 233.935961
-290.567300 -213.807865 232.464567
-290.627005 -212.454560 230.993173
-290.686709 -211.101255 229.521779
-290.746414 -209.747949 228.050385
-290.806119 -208.394644 226.578992
-290.865823 -207.041338 225.107598
-290.925528 -205.688033 223.636204
-290.985233 -204.334727 222.164810
-291.044937 -202.981422 220.693416
-291.104642 -201.628116 219.222023
-291.164347 -200.274811 217.750629
-291.224051 -198.921505 216.279235
-291.283756 -197.568200 214.807841
-291.343461 -196.214895 213.336447
-291.403165 -194.861589 211.865054
-291.462870 -193.508284 210.393660
-291.522574 -192.154978 208.922266
-291.582279 -190.801673 207.450872
-291.641984 -189.448367 205.979479
-291.701688 -188.095062 204.508085
-291.761393 -186.741756 203.036691
-291.821098 -185.388451 201.565297
-291.880802 -184.035145 200.093903
-291.940507 -182.681840 198.622510
-292.000212 -181.328534 197.151116
-292.059916 -179.975229 195.679722
-292.119621 -178.621924 194.208328
-292.179326 -177.268618 192.736934
-292.239030 -175.915313 191.265541
-292.298735 -174.562007 189.794147
-292.358440 -173.208702 188.322753
-292.418144 -171.855396 186.851359
-292.477849 -170.502091 185.379965
-292.537554 -169.148785 183.908572
-292.597258 -167.795480 182.437178
-292.656963 -166.442174 180.965784
-292.716668 -165.088869 179.494390
-292.776372 -163.735564 178.022996
-292.836077 -162.382258 176.551603
-292.895782 -161.028953 175.080209
-292.955486 -159.675647 173.608815
-293.015191 -158.322342 172.137421
-293.074895 -156.969036 170.666027
-293.134600 -155.615731 169.194634
-293.194305 -154.262425 167.723240
-293.254009 -152.909120 166.251846
-293.313714 -151.555814 164.780452
-293.373419 -150.202509 163.309058
-293.433123 -148.849204 161.837665
-293.492828 -147.495898 160.366271
-293.552533 -146.142593 158.894877
-293.612237 -144.789287 157.423483
-293.671942 -143.435982 155.952090
-293.731647 -142.082676 154.480696
-293.791351 -140.729371 153.009302
-293.851056 -139.376065 151.537908
-293.910761 -138.022760 150.066514
-293.970465 -136.669454 148.595121
-294.030170 -135.316149 147.123727
-294.089875 -133.962844 145.652333
-294.149579 -132.609538 144.180939
-294.209284 -131.256233 142.709545
-294.268989 -129.902927 141.238152
-294.328693 -128.549622 139.766758
-294.388398 -127.196316 138.295364
-294.448102 -125.843011 136.823970
-294.507807 -124.489705 135.352576
-294.567512 -123.136400 133.881183
-294.627216 -121.783094 132.409789
-294.686921 -120.429789 130.938395
-294.746626 -119.076484 129.467001
-294.806330 -117.723178 127.995607
-294.866035 -116.369873 126.524214
-294.925740 -115.016567 125.052820
-294.985444 -113.663262 123.581426
-295.045149 -112.309956 122.110032
-295.104854 -110.956651 120.638638
-295.164558 -109.603345 119.167245
-295.224263 -108.250040 117.695851
-295.283968 -106.896734 116.224457
-295.343672 -105.543429 114.753063
-295.403377 -104.190124 113.281669
-295.463082 -102.836818 111.810276
-295.522786 -101.483513 110.338882
-295.582491 -100.130207 108.867488
-295.642196 -98.776902 107.396094
-295.701900 -97.423596 105.924700
-295.761605 -96.070291 104.453307
-295.821309 -94.716985 102.981913
-295.881014 -93.363680 101.510519
-295.940719 -92.010374 100.039125
-296.000423 -90.657069 98.567732
-296.060128 -89.303764 97.096338
-296.119833 -87.950458 95.624944
-296.179537 -86.597153 94.153550
-296.239242 -85.243847 92.682156
-296.298947 -83.890542 91.210763
-296.358651 -82.537236 89.739369
-296.418356 -81.183931 88.267975
-296.478061 -79.830625 86.796581
-296.537765 -78.477320 85.325187
-296.597470 -77.124014 83.853794
-296.657175 -75.770709 82.382400
-296.716879 -74.417404 80.911006
-296.776584 -73.064098 79.439612
-296.836289 -71.710793 77.968218
-296.895993 -70.357487 76.496825
-296.955698 -69.004182 75.025431
-297.015403 -67.650876 73.554037
-297.075107 -66.297571 72.082643
-297.134812 -64.944265 70.611249
-297.194516 -63.590960 69.139856
-297.254221 -62.237654 67.668462
-297.313926 -60.884349 66.197068
-297.373630 -59.531044 64.725674
-297.433335 -58.177738 63.254280
-297.493040 -56.824433 61.782887
-297.552744 -55.471127 60.311493
-297.612449 -54.117822 58.840099
-297.672154 -52.764516 57.368705
-297.731858 -51.411211 55.897311
-297.791563 -50.057905 54.425918
-297.851268 -48.704600 52.954524
-297.910972 -47.351294 51.483130
-297.970677 -45.997989 50.011736
-298.030382 -44.644684 48.540342
-298.090086 -43.291378 47.068949
-298.149791 -41.938073 45.597555
-298.209496 -40.584767 44.126161
-298.269200 -39.231462 42.654767
-298.328905 -37.878156 41.183374
-298.388610 -36.524851 39.711980
-298.448314 -35.171545 38.240586
-298.508019 -33.818240 36.769192
-298.567723 -32.464934 35.297798
-298.627428 -31.111629 33.826405
-298.687133 -29.758324 32.355011
-298.746837 -28.405018 30.883617
-298.806542 -27.051713 29.412223
-298.866247 -25.698407 27.940829
-298.925951 -24.345102 26.469436
-298.985656 -22.991796 24.998042
-299.045361 -21.638491 23.526648
-299.105065 -20.285185 22.055254
-299.164770 -18.931880 20.583860
-299.224475 -17.578574 19.112467
-299.284179 -16.225269 17.641073
-299.343884 -14.871963 16.169679
-299.403589 -13.518658 14.698285
-299.463293 -12.165353 13.226891
-299.522998 -10.812047 11.755498
-299.582703 -9.458742 10.284104
-299.642407 -8.105436 8.812710
-299.702112 -6.752131 7.341316
-299.761817 -5.398825 5.869922
-299.821521 -4.045520 4.398529
-299.881226 -2.692214 2.927135
-300.000000 0.000000 0.000000
-300.000000 0.000000 0.000000
-299.695237 -1.967106 -0.193940
-299.390474 -3.934212 -0.387880
-299.085711 -5.901319 -0.581820
-298.780948 -7.868425 -0.775760
-298.476185 -9.835531 -0.969700
-298.171422 -11.802637 -1.163640
-297.866659 -13.769743 -1.357580
-297.561897 -15.736850 -1.551520
-297.257134 -17.703956 -1.745460
-296.952371 -19.671062 -1.939400
-296.647608 -21.638168 -2.133341
-296.342845 -23.605274 -2.327281
-296.038082 -25.572381 -2.521221
-295.733319 -27.539487 -2.715161
-295.428556 -29.506593 -2.909101
-295.123793 -31.473699 -3.103041
-294.819030 -33.440805 -3.296981
-294.514267 -35.407912 -3.490921
-294.209504 -37.375018 -3.684861
-293.904741 -39.342124 -3.878801
-293.599978 -41.309230 -4.072741
-293.295215 -43.276336 -4.266681
-292.990453 -45.243443 -4.460621
-292.685690 -47.210549 -4.654561
-292.380927 -49.177655 -4.848501
-292.076164 -51.144761 -5.042441
-291.771401 -53.111867 -5.236381
-291.466638 -55.078974 -5.430321
-291.161875 -57.046080 -5.624261
-290.857112 -59.013186 -5.818201
-290.552349 -60.980292 -6.012141
-290.247586 -62.947398 -6.206082
-289.942823 -64.914505 -6.400022
-289.638060 -66.881611 -6.593962
-289.333297 -68.848717 -6.787902
-289.028534 -70.815823 -6.981842
-288.723771 -72.782929 -7.175782
-288.419009 -74.750036 -7.369722
-288.114246 -76.717142 -7.563662
-287.809483 -78.684248 -7.757602
-287.504720 -80.651354 -7.951542
-287.199957 -82.618461 -8.145482
-286.895194 -84.585567 -8.339422
-286.590431 -86.552673 -8.533362
-286.285668 -88.519779 -8.727302
-285.980905 -90.486885 -8.921242
-285.676142 -92.453992 -9.115182
-285.371379 -94.421098 -9.309122
-285.066616 -96.388204 -9.503062
-284.761853 -98.355310 -9.697002
-284.457090 -100.322416 -9.890942
-284.152327 -102.289523 -10.084883
-283.847565 -104.256629 -10.278823
-283.542802 -106.223735 -10.472763
-283.238039 -108.190841 -10.666703
-282.933276 -110.157947 -10.860643
-282.628513 -112.125054 -11.054583
-282.323750 -114.092160 -11.248523
-282.018987 -116.059266 -11.442463
-281.714224 -118.026372 -11.636403
-281.409461 -119.993478 -11.830343
-281.104698 -121.960585 -12.024283
-280.799935 -123.927691 -12.218223
-280.495172 -125.894797 -12.412163
-280.190409 -127.861903 -12.606103
-279.885646 -129.829009 -12.800043
-279.580884 -131.796116 -12.993983
-279.276121 -133.763222 -13.187923
-278.971358 -135.730328 -13.381863
-278.666595 -137.697434 -13.575803
-278.361832 -139.664540 -13.769743
-278.057069 -141.631647 -13.963683
-277.752306 -143.598753 -14.157624
-277.447543 -145.565859 -14.351564
-277.142780 -147.532965 -14.545504
-276.838017 -149.500071 -14.739444
-276.533254 -151.467178 -14.933384
-276.228491 -153.434284 -15.127324
-275.923728 -155.401390 -15.321264
-275.618965 -157.368496 -15.515204
-275.314202 -159.335602 -15.709144
-275.009440 -161.302709 -15.903084
-274.704677 -163.269815 -16.097024
-274.399914 -165.236921 -16.290964
-274.095151 -167.204027 -16.484904
-273.790388 -169.171133 -16.678844
-273.485625 -171.138240 -16.872784
-273.180862 -173.105346 -17.066724
-272.876099 -175.072452 -17.260664
-272.571336 -177.039558 -17.454604
-272.266573 -179.006664 -17.648544
-271.961810 -180.973771 -17.842484
-271.657047 -182.940877 -18.036424
-271.352284 -184.907983 -18.230365
-271.047521 -186.875089 -18.424305
-270.742758 -188.842195 -18.618245
-270.437996 -190.809302 -18.812185
-270.133233 -192.776408 -19.006125
-269.828470 -194.743514 -19.200065
-269.523707 -196.710620 -19.394005
-269.218944 -198.677726 -19.587945
-268.914181 -200.644833 -19.781885
-268.609418 -202.611939 -19.975825
-268.304655 -204.579045 -20.169765
-267.999892 -206.546151 -20.363705
-267.695129 -208.513257 -20.557645
-267.390366 -210.480364 -20.751585
-267.085603 -212.447470 -20.945525
-266.780840 -214.414576 -21.139465
-266.476077 -216.381682 -21.333405
-266.171314 -218.348788 -21.527345
-265.866552 -220.315895 -21.721285
-265.561789 -222.283001 -21.915225
-265.257026 -224.250107 -22.109165
-264.952263 -226.217213 -22.303106
-264.647500 -228.184320 -22.497046
-264.342737 -230.151426 -22.690986
-264.037974 -232.118532 -22.884926
-263.733211 -234.085638 -23.078866
-263.428448 -236.052744 -23.272806
-263.123685 -238.019851 -23.466746
-262.818922 -239.986957 -23.660686
-262.514159 -241.954063 -23.854626
-262.209396 -243.921169 -24.048566
-261.904633 -245.888275 -24.242506
-261.599870 -247.855382 -24.436446
-261.295108 -249.822488 -24.630386
-260.990345 -251.789594 -24.824326
-260.685582 -253.756700 -25.018266
-260.380819 -255.723806 -25.212206
-260.076056 -257.690913 -25.406146
-259.771293 -259.658019 -25.600086
-259.466530 -261.625125 -25.794026
-259.161767 -263.592231 -25.987966
-258.857004 -265.559337 -26.181907
-258.552241 -267.526444 -26.375847
-258.247478 -269.493550 -26.569787
-257.942715 -271.460656 -26.763727
-257.637952 -273.427762 -26.957667
-257.333189 -275.394868 -27.151607
-257.028426 -277.361975 -27.345547
-256.723664 -279.329081 -27.539487
-256.418901 -281.296187 -27.733427
-256.000000 -284.000000 -28.000000
-256.000000 -284.000000 -28.000000
-254.001755 -283.916241 -28.000000
-252.003509 -283.832482 -28.000000
-250.005264 -283.748724 -28.000000
-248.007019 -283.664965 -28.000000
-246.008773 -283.581206 -28.000000
-244.010528 -283.497447 -28.000000
-242.012283 -283.413688 -28.000000
-240.014037 -283.329930 -28.000000
-238.015792 -283.246171 -28.000000
-236.017547 -283.162412 -28.000000
-234.019301 -283.078653 -28.000000
-232.021056 -282.994895 -28.000000
-230.022810 -282.911136 -28.000000
-228.024565 -282.827377 -28.000000
-226.026320 -282.743618 -28.000000
-224.028074 -282.659859 -28.000000
-222.029829 -282.576101 -28.000000
-220.031584 -282.492342 -28.000000
-218.033338 -282.408583 -28.000000
-216.035093 -282.324824 -28.000000
-214.036848 -282.241065 -28.000000
-212.038602 -282.157307 -28.000000
-210.040357 -282.073548 -28.000000
-208.042112 -281.989789 -28.000000
-206.043866 -281.906030 -28.000000
-204.045621 -281.822272 -28.000000
-202.047376 -281.738513 -28.000000
-200.049130 -281.654754 -28.000000
-198.050885 -281.570995 -28.000000
-196.052640 -281.487236 -28.000000
-194.054394 -281.403478 -28.000000
-192.056149 -281.319719 -28.000000
-190.057904 -281.235960 -28.000000
-188.059658 -281.152201 -28.000000
-186.061413 -281.068442 -28.000000
-184.063168 -280.984684 -28.000000
-182.064922 -280.900925 -28.000000
-180.066677 -280.817166 -28.000000
-178.068431 -280.733407 -28.000000
-176.070186 -280.649649 -28.000000
-174.071941 -280.565890 -28.000000
-172.073695 -280.482131 -28.000000
-170.075450 -280.398372 -28.000000
-168.077205 -280.314613 -28.000000
-166.078959 -280.230855 -28.000000
-164.080714 -280.147096 -28.000000
-162.082469 -280.063337 -28.000000
-160.084223 -279.979578 -28.000000
-158.085978 -279.895819 -28.000000
-156.087733 -279.812061 -28.000000
-154.089487 -279.728302 -28.000000
-152.091242 -279.644543 -28.000000
-150.092997 -279.560784 -28.000000
-148.094751 -279.477026 -28.000000
-146.096506 -279.393267 -28.000000
-144.098261 -279.309508 -28.000000
-142.100015 -279.225749 -28.000000
-140.101770 -279.141990 -28.000000
-138.103525 -279.058232 -28.000000
-136.105279 -278.974473 -28.000000
-134.107034 -278.890714 -28.000000
-132.108789 -278.806955 -28.000000
-130.110543 -278.723196 -28.000000
-128.112298 -278.639438 -28.000000
-126.114052 -278.555679 -28.000000
-124.115807 -278.471920 -28.000000
-122.117562 -278.388161 -28.000000
-120.119316 -278.304402 -28.000000
-118.121071 -278.220644 -28.000000
-116.122826 -278.136885 -28.000000
-114.124580 -278.053126 -28.000000
-112.126335 -277.969367 -28.000000
-110.128090 -277.885609 -28.000000
-108.129844 -277.801850 -28.000000
-106.131599 -277.718091 -28.000000
-104.133354 -277.634332 -28.000000
-102.135108 -277.550573 -28.000000
-100.136863 -277.466815 -28.000000
-98.138618 -277.383056 -28.000000
-96.140372 -277.299297 -28.000000
-94.142127 -277.215538 -28.000000
-92.143882 -277.131779 -28.000000
-90.145636 -277.048021 -28.000000
-88.147391 -276.964262 -28.000000
-86.149146 -276.880503 -28.000000
-84.150900 -276.796744 -28.000000
-82.152655 -276.712986 -28.000000
-80.154409 -276.629227 -28.000000
-78.156164 -276.545468 -28.000000
-76.157919 -276.461709 -28.000000
-74.159673 -276.377950 -28.000000
-72.161428 -276.294192 -28.000000
-70.163183 -276.210433 -28.000000
-68.164937 -276.126674 -28.000000
-66.166692 -276.042915 -28.000000
-64.168447 -275.959156 -28.000000
-62.170201 -275.875398 -28.000000
-60.171956 -275.791639 -28.000000
-58.173711 -275.707880 -28.000000
-56.175465 -275.624121 -28.000000
-54.177220 -275.540363 -28.000000
-52.178975 -275.456604 -28.000000
-50.180729 -275.372845 -28.000000
-48.182484 -275.289086 -28.000000
-46.184239 -275.205327 -28.000000
-44.185993 -275.121569 -28.000000
-42.187748 -275.037810 -28.000000
-40.189503 -274.954051 -28.000000
-38.191257 -274.870292 -28.000000
-36.193012 -274.786533 -28.000000
-34.194767 -274.702775 -28.000000
-32.196521 -274.619016 -28.000000
-30.198276 -274.535257 -28.000000
-28.200030 -274.451498 -28.000000
-26.201785 -274.367739 -28.000000
-24.203540 -274.283981 -28.000000
-22.205294 -274.200222 -28.000000
-20.207049 -274.116463 -28.000000
-18.208804 -274.032704 -28.000000
-16.210558 -273.948946 -28.000000
-14.212313 -273.865187 -28.000000
-12.214068 -273.781428 -28.000000
-10.215822 -273.697669 -28.000000
-8.217577 -273.613910 -28.000000
-6.219332 -273.530152 -28.000000
-4.221086 -273.446393 -28.000000
-2.222841 -273.362634 -28.000000
-0.224596 -273.278875 -28.000000
1.773650 -273.195116 -28.000000
3.771895 -273.111358 -28.000000
5.770140 -273.027599 -28.000000
7.768386 -272.943840 -28.000000
9.766631 -272.860081 -28.000000
11.764876 -272.776323 -28.000000
13.763122 -272.692564 -28.000000
15.761367 -272.608805 -28.000000
17.759612 -272.525046 -28.000000
19.757858 -272.441287 -28.000000
21.756103 -272.357529 -28.000000
23.754349 -272.273770 -28.000000
25.752594 -272.190011 -28.000000
27.750839 -272.106252 -28.000000
29.749085 -272.022493 -28.000000
31.747330 -271.938735 -28.000000
33.745575 -271.854976 -28.000000
35.743821 -271.771217 -28.000000
37.742066 -271.687458 -28.000000
39.740311 -271.603700 -28.000000
41.738557 -271.519941 -28.000000
43.736802 -271.436182 -28.000000
45.735047 -271.352423 -28.000000
47.733293 -271.268664 -28.000000
49.731538 -271.184906 -28.000000
51.729783 -271.101147 -28.000000
53.728029 -271.017388 -28.000000
55.726274 -270.933629 -28.000000
57.724519 -270.849870 -28.000000
59.722765 -270.766112 -28.000000
61.721010 -270.682353 -28.000000
63.719255 -270.598594 -28.000000
65.717501 -270.514835 -28.000000
67.715746 -270.431077 -28.000000
69.713992 -270.347318 -28.000000
71.712237 -270.263559 -28.000000
73.710482 -270.179800 -28.000000
75.708728 -270.096041 -28.000000
77.706973 -270.012283 -28.000000
79.705218 -269.928524 -28.000000
81.703464 -269.844765 -28.000000
83.701709 -269.761006 -28.000000
85.699954 -269.677247 -28.000000
87.698200 -269.593489 -28.000000
89.696445 -269.509730 -28.000000
91.694690 -269.425971 -28.000000
93.692936 -269.342212 -28.000000
95.691181 -269.258453 -28.000000
97.689426 -269.174695 -28.000000
99.687672 -269.090936 -28.000000
101.685917 -269.007177 -28.000000
103.684162 -268.923418 -28.000000
105.682408 -268.839660 -28.000000
107.680653 -268.755901 -28.000000
109.678898 -268.672142 -28.000000
111.677144 -268.588383 -28.000000
113.675389 -268.504624 -28.000000
115.673634 -268.420866 -28.000000
117.671880 -268.337107 -28.000000
119.670125 -268.253348 -28.000000
121.668371 -268.169589 -28.000000
123.666616 -268.085830 -28.000000
125.664861 -268.002072 -28.000000
127.663107 -267.918313 -28.000000
129.661352 -267.834554 -28.000000
131.659597 -267.750795 -28.000000
133.657843 -267.667037 -28.000000
135.656088 -267.583278 -28.000000
137.654333 -267.499519 -28.000000
139.652579 -267.415760 -28.000000
141.650824 -267.332001 -28.000000
143.649069 -267.248243 -28.000000
145.647315 -267.164484 -28.000000
147.645560 -267.080725 -28.000000
149.643805 -266.996966 -28.000000
151.642051 -266.913207 -28.000000
153.640296 -266.829449 -28.000000
155.638541 -266.745690 -28.000000
157.636787 -266.661931 -28.000000
159.635032 -266.578172 -28.000000
161.633277 -266.494414 -28.000000
163.631523 -266.410655 -28.000000
165.629768 -266.326896 -28.000000
167.628014 -266.243137 -28.000000
169.626259 -266.159378 -28.000000
171.624504 -266.075620 -28.000000
173.622750 -265.991861 -28.000000
175.620995 -265.908102 -28.000000
177.619240 -265.824343 -28.000000
179.617486 -265.740584 -28.000000
181.615731 -265.656826 -28.000000
183.613976 -265.573067 -28.000000
185.612222 -265.489308 -28.000000
187.610467 -265.405549 -28.000000
189.608712 -265.321791 -28.000000
191.606958 -265.238032 -28.000000
193.605203 -265.154273 -28.000000
195.603448 -265.070514 -28.000000
197.601694 -264.986755 -28.000000
199.599939 -264.902997 -28.000000
201.598184 -264.819238 -28.000000
203.596430 -264.735479 -28.000000
205.594675 -264.651720 -28.000000
207.592920 -264.567961 -28.000000
209.591166 -264.484203 -28.000000
211.589411 -264.400444 -28.000000
213.587656 -264.316685 -28.000000
215.585902 -264.232926 -28.000000
217.584147 -264.149167 -28.000000
219.582393 -264.065409 -28.000000
221.580638 -263.981650 -28.000000
223.578883 -263.897891 -28.000000
225.577129 -263.814132 -28.000000
227.575374 -263.730374 -28.000000
229.573619 -263.646615 -28.000000
231.571865 -263.562856 -28.000000
233.570110 -263.479097 -28.000000
235.568355 -263.395338 -28.000000
237.566601 -263.311580 -28.000000
239.564846 -263.227821 -28.000000
241.563091 -263.144062 -28.000000
243.561337 -263.060303 -28.000000
245.559582 -262.976544 -28.000000
247.557827 -262.892786 -28.000000
249.556073 -262.809027 -28.000000
251.554318 -262.725268 -28.000000
253.552563 -262.641509 -28.000000
255.550809 -262.557751 -28.000000
257.549054 -262.473992 -28.000000
259.547299 -262.390233 -28.000000
261.545545 -262.306474 -28.000000
263.543790 -262.222715 -28.000000
265.542035 -262.138957 -28.000000
267.540281 -262.055198 -28.000000
269.538526 -261.971439 -28.000000
271.536772 -261.887680 -28.000000
273.535017 -261.803921 -28.000000
275.533262 -261.720163 -28.000000
277.531508 -261.636404 -28.000000
279.529753 -261.552645 -28.000000
281.527998 -261.468886 -28.000000
283.526244 -261.385128 -28.000000
285.524489 -261.301369 -28.000000
287.522734 -261.217610 -28.000000
289.520980 -261.133851 -28.000000
291.519225 -261.050092 -28.000000
293.517470 -260.966334 -28.000000
295.515716 -260.882575 -28.000000
297.513961 -260.798816 -28.000000
299.512206 -260.715057 -28.000000
301.510452 -260.631298 -28.000000
303.508697 -260.547540 -28.000000
305.506942 -260.463781 -28.000000
307.505188 -260.380022 -28.000000
309.503433 -260.296263 -28.000000
311.501678 -260.212504 -28.000000
313.499924 -260.128746 -28.000000
315.498169 -260.044987 -28.000000
317.496415 -259.961228 -28.000000
319.494660 -259.877469 -28.000000
321.492905 -259.793711 -28.000000
323.491151 -259.709952 -28.000000
325.489396 -259.626193 -28.000000
327.487641 -259.542434 -28.000000
329.485887 -259.458675 -28.000000
331.484132 -259.374917 -28.000000
333.482377 -259.291158 -28.000000
335.480623 -259.207399 -28.000000
337.478868 -259.123640 -28.000000
339.477113 -259.039881 -28.000000
341.475359 -258.956123 -28.000000
343.473604 -258.872364 -28.000000
345.471849 -258.788605 -28.000000
347.470095 -258.704846 -28.000000
349.468340 -258.621088 -28.000000
351.466585 -258.537329 -28.000000
353.464831 -258.453570 -28.000000
355.463076 -258.369811 -28.000000
357.461321 -258.286052 -28.000000
359.459567 -258.202294 -28.000000
361.457812 -258.118535 -28.000000
363.456057 -258.034776 -28.000000
365.454303 -257.951017 -28.000000
367.452548 -257.867258 -28.000000
369.450794 -257.783500 -28.000000
371.449039 -257.699741 -28.000000
373.447284 -257.615982 -28.000000
375.445530 -257.532223 -28.000000
377.443775 -257.448465 -28.000000
379.442020 -257.364706 -28.000000
381.440266 -257.280947 -28.000000
383.438511 -257.197188 -28.000000
385.436756 -257.113429 -28.000000
387.435002 -257.029671 -28.000000
389.433247 -256.945912 -28.000000
391.431492 -256.862153 -28.000000
393.429738 -256.778394 -28.000000
395.427983 -256.694635 -28.000000
397.426228 -256.610877 -28.000000
399.424474 -256.527118 -28.000000
401.422719 -256.443359 -28.000000
403.420964 -256.359600 -28.000000
405.419210 -256.275842 -28.000000
407.417455 -256.192083 -28.000000
409.415700 -256.108324 -28.000000
412.000000 -256.000000 -28.000000
412.000000 -256.000000 -28.000000
411.804076 -254.012771 -28.111957
411.608152 -252.025542 -28.223913
411.412228 -250.038313 -28.335870
411.216304 -248.051084 -28.447826
411.020380 -246.063854 -28.559783
410.824456 -244.076625 -28.671739
410.628532 -242.089396 -28.783696
410.432608 -240.102167 -28.895653
410.236684 -238.114938 -29.007609
410.040760 -236.127709 -29.119566
409.844836 -234.140480 -29.231522
409.648912 -232.153251 -29.343479
409.452988 -230.166022 -29.455435
409.257064 -228.178793 -29.567392
409.061140 -226.191563 -29.679349
408.865216 -224.204334 -29.791305
408.669292 -222.217105 -29.903262
408.473368 -220.229876 -30.015218
408.277444 -218.242647 -30.127175
408.081520 -216.255418 -30.239131
407.885596 -214.268189 -30.351088
407.689672 -212.280960 -30.463045
407.493748 -210.293731 -30.575001
407.297824 -208.306501 -30.686958
407.101900 -206.319272 -30.798914
406.905976 -204.332043 -30.910871
406.710052 -202.344814 -31.022827
406.514128 -200.357585 -31.134784
406.318204 -198.370356 -31.246741
406.122280 -196.383127 -31.358697
405.926356 -194.395898 -31.470654
405.730432 -192.408669 -31.582610
405.534508 -190.421440 -31.694567
405.338584 -188.434210 -31.806523
405.142660 -186.446981 -31.918480
404.946736 -184.459752 -32.030436
404.750812 -182.472523 -32.142393
404.554888 -180.485294 -32.254350
404.358964 -178.498065 -32.366306
404.163040 -176.510836 -32.478263
403.967116 -174.523607 -32.590219
403.771192 -172.536378 -32.702176
403.575268 -170.549149 -32.814132
403.379344 -168.561919 -32.926089
403.183420 -166.574690 -33.038046
402.987496 -164.587461 -33.150002
402.791572 -162.600232 -33.261959
402.595648 -160.613003 -33.373915
402.399724 -158.625774 -33.485872
402.203800 -156.638545 -33.597828
402.007876 -154.651316 -33.709785
401.811952 -152.664087 -33.821742
401.616028 -150.676857 -33.933698
401.420104 -148.689628 -34.045655
401.224180 -146.702399 -34.157611
401.028256 -144.715170 -34.269568
400.832332 -142.727941 -34.381524
400.636408 -140.740712 -34.493481
400.440484 -138.753483 -34.605438
400.244560 -136.766254 -34.717394
400.048636 -134.779025 -34.829351
399.852712 -132.791796 -34.941307
399.656788 -130.804566 -35.053264
399.460864 -128.817337 -35.165220
399.264940 -126.830108 -35.277177
399.069016 -124.842879 -35.389134
398.873092 -122.855650 -35.501090
398.677168 -120.868421 -35.613047
398.481244 -118.881192 -35.725003
398.285320 -116.893963 -35.836960
398.089396 -114.906734 -35.948916
397.893472 -112.919504 -36.060873
397.697548 -110.932275 -36.172830
397.501624 -108.945046 -36.284786
397.305700 -106.957817 -36.396743
397.109776 -104.970588 -36.508699
396.913852 -102.983359 -36.620656
396.717928 -100.996130 -36.732612
396.522004 -99.008901 -36.844569
396.326080 -97.021672 -36.956526
396.130156 -95.034443 -37.068482
395.934232 -93.047213 -37.180439
395.738308 -91.059984 -37.292395
395.542384 -89.072755 -37.404352
395.346460 -87.085526 -37.516308
395.150536 -85.098297 -37.628265
394.954612 -83.111068 -37.740222
394.758688 -81.123839 -37.852178
394.562764 -79.136610 -37.964135
394.366840 -77.149381 -38.076091
394.170916 -75.162151 -38.188048
393.974992 -73.174922 -38.300004
393.779068 -71.187693 -38.411961
393.583144 -69.200464 -38.523918
393.387220 -67.213235 -38.635874
393.191296 -65.226006 -38.747831
392.995372 -63.238777 -38.859787
392.799448 -61.251548 -38.971744
392.603524 -59.264319 -39.083700
392.407600 -57.277090 -39.195657
392.211676 -55.289860 -39.307613
392.015752 -53.302631 -39.419570
391.819828 -51.315402 -39.531527
391.623904 -49.328173 -39.643483
391.427980 -47.340944 -39.755440
391.232056 -45.353715 -39.867396
391.036132 -43.366486 -39.979353
390.840208 -41.379257 -40.091309
390.644284 -39.392028 -40.203266
390.448360 -37.404798 -40.315223
390.252436 -35.417569 -40.427179
390.056512 -33.430340 -40.539136
389.860588 -31.443111 -40.651092
389.664664 -29.455882 -40.763049
389.468740 -27.468653 -40.875005
389.272816 -25.481424 -40.986962
389.076892 -23.494195 -41.098919
388.880968 -21.506966 -41.210875
388.685044 -19.519737 -41.322832
388.489120 -17.532507 -41.434788
388.293196 -15.545278 -41.546745
388.097272 -13.558049 -41.658701
387.901348 -11.570820 -41.770658
387.705424 -9.583591 -41.882615
387.509500 -7.596362 -41.994571
387.313576 -5.609133 -42.106528
387.117652 -3.621904 -42.218484
386.921728 -1.634675 -42.330441
386.725804 0.352554 -42.442397
386.529880 2.339784 -42.554354
386.333956 4.327013 -42.666311
386.138032 6.314242 -42.778267
385.942109 8.301471 -42.890224
385.746185 10.288700 -43.002180
385.550261 12.275929 -43.114137
385.354337 14.263158 -43.226093
385.158413 16.250387 -43.338050
384.962489 18.237616 -43.450007
384.766565 20.224846 -43.561963
384.570641 22.212075 -43.673920
384.374717 24.199304 -43.785876
384.000000 28.000000 -44.000000
384.000000 28.000000 -44.000000
382.438932 29.248855 -43.941460
380.877863 30.497710 -43.882920
379.316795 31.746564 -43.824380
377.755726 32.995419 -43.765840
376.194658 34.244274 -43.707300
374.633589 35.493129 -43.648760
373.072521 36.741983 -43.590220
371.511452 37.990838 -43.531679
369.950384 39.239693 -43.473139
368.389315 40.488548 -43.414599
366.828247 41.737403 -43.356059
365.267178 42.986257 -43.297519
363.706110 44.235112 -43.238979
362.145041 45.483967 -43.180439
360.583973 46.732822 -43.121899
359.022904 47.981677 -43.063359
357.461836 49.230531 -43.004819
355.900767 50.479386 -42.946279
354.339699 51.728241 -42.887739
352.778630 52.977096 -42.829199
351.217562 54.225950 -42.770659
349.656493 55.474805 -42.712119
348.095425 56.723660 -42.653578
346.534357 57.972515 -42.595038
344.973288 59.221370 -42.536498
343.412220 60.470224 -42.477958
341.851151 61.719079 -42.419418
340.290083 62.967934 -42.360878
338.729014 64.216789 -42.302338
337.167946 65.465643 -42.243798
335.606877 66.714498 -42.185258
334.045809 67.963353 -42.126718
332.484740 69.212208 -42.068178
330.923672 70.461063 -42.009638
329.362603 71.709917 -41.951098
327.801535 72.958772 -41.892558
326.240466 74.207627 -41.834017
324.679398 75.456482 -41.775477
323.118329 76.705337 -41.716937
321.557261 77.954191 -41.658397
319.996192 79.203046 -41.599857
318.435124 80.451901 -41.541317
316.874055 81.700756 -41.482777
315.312987 82.949610 -41.424237
313.751918 84.198465 -41.365697
312.190850 85.447320 -41.307157
310.629782 86.696175 -41.248617
309.068713 87.945030 -41.190077
307.507645 89.193884 -41.131537
305.946576 90.442739 -41.072997
304.385508 91.691594 -41.014457
302.824439 92.940449 -40.955916
301.263371 94.189303 -40.897376
299.702302 95.438158 -40.838836
298.141234 96.687013 -40.780296
296.580165 97.935868 -40.721756
295.019097 99.184723 -40.663216
293.458028 100.433577 -40.604676
291.896960 101.682432 -40.546136
290.335891 102.931287 -40.487596
288.774823 104.180142 -40.429056
287.213754 105.428997 -40.370516
285.652686 106.677851 -40.311976
284.091617 107.926706 -40.253436
282.530549 109.175561 -40.194896
280.969480 110.424416 -40.136356
279.408412 111.673270 -40.077815
277.847343 112.922125 -40.019275
276.286275 114.170980 -39.960735
274.725207 115.419835 -39.902195
273.164138 116.668690 -39.843655
271.603070 117.917544 -39.785115
270.042001 119.166399 -39.726575
268.480933 120.415254 -39.668035
266.919864 121.664109 -39.609495
265.358796 122.912963 -39.550955
263.797727 124.161818 -39.492415
262.236659 125.410673 -39.433875
260.675590 126.659528 -39.375335
259.114522 127.908383 -39.316795
257.553453 129.157237 -39.258254
255.992385 130.406092 -39.199714
254.431316 131.654947 -39.141174
252.870248 132.903802 -39.082634
251.309179 134.152657 -39.024094
249.748111 135.401511 -38.965554
248.187042 136.650366 -38.907014
246.625974 137.899221 -38.848474
245.064905 139.148076 -38.789934
243.503837 140.396930 -38.731394
241.942769 141.645785 -38.672854
240.381700 142.894640 -38.614314
238.820632 144.143495 -38.555774
237.259563 145.392350 -38.497234
235.698495 146.641204 -38.438694
234.137426 147.890059 -38.380153
232.576358 149.138914 -38.321613
231.015289 150.387769 -38.263073
229.454221 151.636623 -38.204533
227.893152 152.885478 -38.145993
226.332084 154.134333 -38.087453
224.771015 155.383188 -38.028913
223.209947 156.632043 -37.970373
221.648878 157.880897 -37.911833
220.087810 159.129752 -37.853293
218.526741 160.378607 -37.794753
216.965673 161.627462 -37.736213
215.404604 162.876316 -37.677673
213.843536 164.125171 -37.619133
