-1331.558943 -3526.914584 123.256247
-1333.444035 -3526.703296 123.890113
-1335.329126 -3526.492007 124.523979
-1337.214218 -3526.280718 125.157846
-1339.099310 -3526.069429 125.791712
-1340.984401 -3525.858141 126.425578
-1342.869493 -3525.646852 127.059444
-1344.754585 -3525.435563 127.693310
-1346.639676 -3525.224274 128.327177
-1348.524768 -3525.012986 128.961043
-1350.409860 -3524.801697 129.594909
-1352.294952 -3524.590408 130.228775
-1354.180043 -3524.379119 130.862642
-1356.065135 -3524.167831 131.496508
-1357.950227 -3523.956542 132.130374
-1359.835318 -3523.745253 132.764240
-1361.720410 -3523.533965 133.398106
-1363.605502 -3523.322676 134.031973
-1365.490593 -3523.111387 134.665839
-1367.375685 -3522.900098 135.299705
-1369.260777 -3522.688810 135.933571
-1371.145868 -3522.477521 136.567437
-1373.030960 -3522.266232 137.201304
-1374.916052 -3522.054943 137.835170
-1376.801144 -3521.843655 138.469036
-1378.686235 -3521.632366 139.102902
-1380.571327 -3521.421077 139.736768
-1382.456419 -3521.209788 140.370635
-1384.341510 -3520.998500 141.004501
-1386.226602 -3520.787211 141.638367
-1388.111694 -3520.575922 142.272233
-1389.996785 -3520.364634 142.906099
-1393.250000 -3520.000000 144.000000
-1393.250000 -3520.000000 144.000000
-1393.262077 -3518.000036 144.000000
-1393.274154 -3516.000073 144.000000
-1393.286231 -3514.000109 144.000000
-1393.298308 -3512.000146 144.000000
-1393.310385 -3510.000182 144.000000
-1393.322462 -3508.000219 144.000000
-1393.334540 -3506.000255 144.000000
-1393.346617 -3504.000292 144.000000
-1393.358694 -3502.000328 144.000000
-1393.370771 -3500.000365 144.000000
-1393.382848 -3498.000401 144.000000
-1393.394925 -3496.000438 144.000000
-1393.407002 -3494.000474 144.000000
-1393.419079 -3492.000510 144.000000
-1393.431156 -3490.000547 144.000000
-1393.443233 -3488.000583 144.000000
-1393.455310 -3486.000620 144.000000
-1393.467387 -3484.000656 144.000000
-1393.479464 -3482.000693 144.000000
-1393.491541 -3480.000729 144.000000
-1393.503619 -3478.000766 144.000000
-1393.515696 -3476.000802 144.000000
-1393.527773 -3474.000839 144.000000
-1393.539850 -3472.000875 144.000000
-1393.551927 -3470.000912 144.000000
-1393.564004 -3468.000948 144.000000
-1393.576081 -3466.000985 144.000000
-1393.588158 -3464.001021 144.000000
-1393.600235 -3462.001057 144.000000
-1393.612312 -3460.001094 144.000000
-1393.624389 -3458.001130 144.000000
-1393.636466 -3456.001167 144.000000
-1393.648543 -3454.001203 144.000000
-1393.660621 -3452.001240 144.000000
-1393.672698 -3450.001276 144.000000
-1393.684775 -3448.001313 144.000000
-1393.696852 -3446.001349 144.000000
-1393.708929 -3444.001386 144.000000
-1393.721006 -3442.001422 144.000000
-1393.733083 -3440.001459 144.000000
-1393.745160 -3438.001495 144.000000
-1393.757237 -3436.001531 144.000000
-1393.769314 -3434.001568 144.000000
-1393.781391 -3432.001604 144.000000
-1393.793468 -3430.001641 144.000000
-1393.805545 -3428.001677 144.000000
-1393.817623 -3426.001714 144.000000
-1393.829700 -3424.001750 144.000000
-1393.841777 -3422.001787 144.000000
-1393.853854 -3420.001823 144.000000
-1393.865931 -3418.001860 144.000000
-1393.878008 -3416.001896 144.000000
-1393.890085 -3414.001933 144.000000
-1393.902162 -3412.001969 144.000000
-1393.914239 -3410.002006 144.000000
-1393.926316 -3408.002042 144.000000
-1393.938393 -3406.002078 144.000000
-1393.950470 -3404.002115 144.000000
-1393.962547 -3402.002151 144.000000
-1393.974624 -3400.002188 144.000000
-1393.986702 -3398.002224 144.000000
-1393.998779 -3396.002261 144.000000
-1394.010856 -3394.002297 144.000000
-1394.022933 -3392.002334 144.000000
-1394.035010 -3390.002370 144.000000
-1394.047087 -3388.002407 144.000000
-1394.059164 -3386.002443 144.000000
-1394.071241 -3384.002480 144.000000
-1394.083318 -3382.002516 144.000000
-1394.095395 -3380.002552 144.000000
-1394.107472 -3378.002589 144.000000
-1394.119549 -3376.002625 144.000000
-1394.131626 -3374.002662 144.000000
-1394.143704 -3372.002698 144.000000
-1394.155781 -3370.002735 144.000000
-1394.167858 -3368.002771 144.000000
-1394.179935 -3366.002808 144.000000
-1394.192012 -3364.002844 144.000000
-1394.204089 -3362.002881 144.000000
-1394.216166 -3360.002917 144.000000
-1394.228243 -3358.002954 144.000000
-1394.240320 -3356.002990 144.000000
-1394.252397 -3354.003027 144.000000
-1394.264474 -3352.003063 144.000000
-1394.276551 -3350.003099 144.000000
-1394.288628 -3348.003136 144.000000
-1394.300705 -3346.003172 144.000000
-1394.312783 -3344.003209 144.000000
-1394.324860 -3342.003245 144.000000
-1394.336937 -3340.003282 144.000000
-1394.349014 -3338.003318 144.000000
-1394.361091 -3336.003355 144.000000
-1394.373168 -3334.003391 144.000000
-1394.385245 -3332.003428 144.000000
-1394.397322 -3330.003464 144.000000
-1394.409399 -3328.003501 144.000000
-1394.421476 -3326.003537 144.000000
-1394.433553 -3324.003573 144.000000
-1394.445630 -3322.003610 144.000000
-1394.457707 -3320.003646 144.000000
-1394.469785 -3318.003683 144.000000
-1394.481862 -3316.003719 144.000000
-1394.500000 -3313.000000 144.000000
-1394.500000 -3313.000000 144.000000
-1394.653463 -3311.508531 142.676381
-1394.806926 -3310.017061 141.352762
-1394.960389 -3308.525592 140.029142
-1395.113852 -3307.034122 138.705523
-1395.267315 -3305.542653 137.381904
-1395.420779 -3304.051183 136.058285
-1395.574242 -3302.559714 134.734665
-1395.727705 -3301.068244 133.411046
-1395.881168 -3299.576775 132.087427
-1396.034631 -3298.085305 130.763808
-1396.188094 -3296.593836 129.440189
-1396.341557 -3295.102366 128.116569
-1396.495020 -3293.610897 126.792950
-1396.648483 -3292.119427 125.469331
-1396.801946 -3290.627958 124.145712
-1396.955410 -3289.136488 122.822092
-1397.108873 -3287.645019 121.498473
-1397.262336 -3286.153549 120.174854
-1397.415799 -3284.662080 118.851235
-1397.569262 -3283.170610 117.527616
-1397.722725 -3281.679141 116.203996
-1397.876188 -3280.187671 114.880377
-1398.029651 -3278.696202 113.556758
-1398.183114 -3277.204732 112.233139
-1398.336577 -3275.713263 110.909519
-1398.490041 -3274.221793 109.585900
-1398.643504 -3272.730324 108.262281
-1398.796967 -3271.238854 106.938662
-1398.950430 -3269.747385 105.615043
-1399.103893 -3268.255915 104.291423
-1399.257356 -3266.764446 102.967804
-1399.410819 -3265.272976 101.644185
-1399.564282 -3263.781507 100.320566
-1399.717745 -3262.290037 98.996946
-1399.871208 -3260.798568 97.673327
-1400.024672 -3259.307098 96.349708
-1400.178135 -3257.815629 95.026089
-1400.331598 -3256.324160 93.702470
-1400.485061 -3254.832690 92.378850
-1400.638524 -3253.341221 91.055231
-1400.791987 -3251.849751 89.731612
-1400.945450 -3250.358282 88.407993
-1401.098913 -3248.866812 87.084373
-1401.252376 -3247.375343 85.760754
-1401.405839 -3245.883873 84.437135
-1401.559303 -3244.392404 83.113516
-1401.712766 -3242.900934 81.789897
-1401.866229 -3241.409465 80.466277
-1402.019692 -3239.917995 79.142658
-1402.173155 -3238.426526 77.819039
-1402.326618 -3236.935056 76.495420
-1402.480081 -3235.443587 75.171800
-1402.633544 -3233.952117 73.848181
-1402.787007 -3232.460648 72.524562
-1402.940470 -3230.969178 71.200943
-1403.093934 -3229.477709 69.877324
-1403.247397 -3227.986239 68.553704
-1403.400860 -3226.494770 67.230085
-1403.554323 -3225.003300 65.906466
-1403.707786 -3223.511831 64.582847
-1403.861249 -3222.020361 63.259227
-1404.014712 -3220.528892 61.935608
-1404.168175 -3219.037422 60.611989
-1404.321638 -3217.545953 59.288370
-1404.475101 -3216.054483 57.964751
-1404.628564 -3214.563014 56.641131
-1404.782028 -3213.071544 55.317512
-1404.935491 -3211.580075 53.993893
-1405.088954 -3210.088605 52.670274
-1405.242417 -3208.597136 51.346654
-1405.395880 -3207.105666 50.023035
-1405.549343 -3205.614197 48.699416
-1405.702806 -3204.122727 47.375797
-1405.856269 -3202.631258 46.052177
-1406.009732 -3201.139788 44.728558
-1406.163195 -3199.648319 43.404939
-1406.316659 -3198.156850 42.081320
-1406.470122 -3196.665380 40.757701
-1406.623585 -3195.173911 39.434081
-1406.777048 -3193.682441 38.110462
-1406.930511 -3192.190972 36.786843
-1407.083974 -3190.699502 35.463224
-1407.237437 -3189.208033 34.139604
-1407.390900 -3187.716563 32.815985
-1407.544363 -3186.225094 31.492366
-1407.697826 -3184.733624 30.168747
-1407.851290 -3183.242155 28.845128
-1408.004753 -3181.750685 27.521508
-1408.158216 -3180.259216 26.197889
-1408.311679 -3178.767746 24.874270
-1408.465142 -3177.276277 23.550651
-1408.618605 -3175.784807 22.227031
-1408.772068 -3174.293338 20.903412
-1408.925531 -3172.801868 19.579793
-1409.078994 -3171.310399 18.256174
-1409.232457 -3169.818929 16.932555
-1409.385921 -3168.327460 15.608935
-1409.539384 -3166.835990 14.285316
-1409.692847 -3165.344521 12.961697
-1409.846310 -3163.853051 11.638078
-1409.999773 -3162.361582 10.314458
-1410.153236 -3160.870112 8.990839
-1410.306699 -3159.378643 7.667220
-1410.500000 -3157.500000 6.000000
-1410.500000 -3157.500000 6.000000
-1412.478584 -3157.208098 6.000000
-1414.457167 -3156.916196 6.000000
-1416.435751 -3156.624295 6.000000
-1418.414335 -3156.332393 6.000000
-1420.392918 -3156.040491 6.000000
-1422.371502 -3155.748589 6.000000
-1424.350086 -3155.456687 6.000000
-1426.328669 -3155.164786 6.000000
-1428.307253 -3154.872884 6.000000
-1430.285837 -3154.580982 6.000000
-1432.264420 -3154.289080 6.000000
-1434.243004 -3153.997178 6.000000
-1436.221588 -3153.705277 6.000000
-1438.200171 -3153.413375 6.000000
-1440.178755 -3153.121473 6.000000
-1442.157339 -3152.829571 6.000000
-1444.135922 -3152.537669 6.000000
-1446.114506 -3152.245767 6.000000
-1448.093090 -3151.953866 6.000000
-1450.071673 -3151.661964 6.000000
-1452.050257 -3151.370062 6.000000
-1454.028841 -3151.078160 6.000000
-1456.007424 -3150.786258 6.000000
-1457.986008 -3150.494357 6.000000
-1459.964592 -3150.202455 6.000000
-1461.943175 -3149.910553 6.000000
-1463.921759 -3149.618651 6.000000
-1465.900343 -3149.326749 6.000000
-1467.878926 -3149.034848 6.000000
-1469.857510 -3148.742946 6.000000
-1471.836094 -3148.451044 6.000000
-1473.814677 -3148.159142 6.000000
-1475.793261 -3147.867240 6.000000
-1477.771845 -3147.575339 6.000000
-1479.750428 -3147.283437 6.000000
-1481.729012 -3146.991535 6.000000
-1483.707596 -3146.699633 6.000000
-1485.686179 -3146.407731 6.000000
-1487.664763 -3146.115830 6.000000
-1489.643347 -3145.823928 6.000000
-1491.621930 -3145.532026 6.000000
-1493.600514 -3145.240124 6.000000
-1495.579098 -3144.948222 6.000000
-1497.557681 -3144.656320 6.000000
-1499.536265 -3144.364419 6.000000
-1501.514849 -3144.072517 6.000000
-1503.493432 -3143.780615 6.000000
-1505.472016 -3143.488713 6.000000
-1507.450600 -3143.196811 6.000000
-1509.429183 -3142.904910 6.000000
-1511.407767 -3142.613008 6.000000
-1513.386351 -3142.321106 6.000000
-1515.364934 -3142.029204 6.000000
-1517.343518 -3141.737302 6.000000
-1519.322102 -3141.445401 6.000000
-1521.300685 -3141.153499 6.000000
-1523.279269 -3140.861597 6.000000
-1525.257853 -3140.569695 6.000000
-1527.236436 -3140.277793 6.000000
-1529.215020 -3139.985892 6.000000
-1531.193604 -3139.693990 6.000000
-1533.172187 -3139.402088 6.000000
-1535.150771 -3139.110186 6.000000
-1537.129355 -3138.818284 6.000000
-1539.107938 -3138.526383 6.000000
-1541.086522 -3138.234481 6.000000
-1543.065106 -3137.942579 6.000000
-1545.043689 -3137.650677 6.000000
-1547.022273 -3137.358775 6.000000
-1549.000857 -3137.066873 6.000000
-1550.979440 -3136.774972 6.000000
-1552.958024 -3136.483070 6.000000
-1554.936608 -3136.191168 6.000000
-1556.915191 -3135.899266 6.000000
-1558.893775 -3135.607364 6.000000
-1560.872359 -3135.315463 6.000000
-1562.850943 -3135.023561 6.000000
-1564.829526 -3134.731659 6.000000
-1566.808110 -3134.439757 6.000000
-1568.786694 -3134.147855 6.000000
-1570.765277 -3133.855954 6.000000
-1572.743861 -3133.564052 6.000000
-1574.722445 -3133.272150 6.000000
-1576.701028 -3132.980248 6.000000
-1578.679612 -3132.688346 6.000000
-1580.658196 -3132.396445 6.000000
-1582.636779 -3132.104543 6.000000
-1584.615363 -3131.812641 6.000000
-1586.593947 -3131.520739 6.000000
-1588.572530 -3131.228837 6.000000
-1590.551114 -3130.936936 6.000000
-1592.529698 -3130.645034 6.000000
-1594.508281 -3130.353132 6.000000
-1596.486865 -3130.061230 6.000000
-1598.465449 -3129.769328 6.000000
-1600.444032 -3129.477426 6.000000
-1602.422616 -3129.185525 6.000000
-1604.401200 -3128.893623 6.000000
-1606.379783 -3128.601721 6.000000
-1608.358367 -3128.309819 6.000000
-1610.336951 -3128.017917 6.000000
-1612.315534 -3127.726016 6.000000
-1614.294118 -3127.434114 6.000000
-1616.272702 -3127.142212 6.000000
-1618.251285 -3126.850310 6.000000
-1620.229869 -3126.558408 6.000000
-1622.208453 -3126.266507 6.000000
-1624.187036 -3125.974605 6.000000
-1626.165620 -3125.682703 6.000000
-1628.144204 -3125.390801 6.000000
-1630.122787 -3125.098899 6.000000
-1632.101371 -3124.806998 6.000000
-1634.079955 -3124.515096 6.000000
-1636.058538 -3124.223194 6.000000
-1638.037122 -3123.931292 6.000000
-1640.015706 -3123.639390 6.000000
-1641.994289 -3123.347489 6.000000
-1643.972873 -3123.055587 6.000000
-1645.951457 -3122.763685 6.000000
-1647.930040 -3122.471783 6.000000
-1649.908624 -3122.179881 6.000000
-1651.887208 -3121.887979 6.000000
-1653.865791 -3121.596078 6.000000
-1655.844375 -3121.304176 6.000000
-1657.822959 -3121.012274 6.000000
-1659.801542 -3120.720372 6.000000
-1661.780126 -3120.428470 6.000000
-1663.758710 -3120.136569 6.000000
-1665.737293 -3119.844667 6.000000
-1667.715877 -3119.552765 6.000000
-1669.694461 -3119.260863 6.000000
-1671.673044 -3118.968961 6.000000
-1673.651628 -3118.677060 6.000000
-1675.630212 -3118.385158 6.000000
-1677.608795 -3118.093256 6.000000
-1679.587379 -3117.801354 6.000000
-1681.565963 -3117.509452 6.000000
-1683.544546 -3117.217551 6.000000
-1685.523130 -3116.925649 6.000000
-1687.501714 -3116.633747 6.000000
-1689.480297 -3116.341845 6.000000
-1692.485757 -3115.898448 6.000000
-1692.485757 -3115.898448 6.000000
-1694.169999 -3116.977025 6.000000
-1695.854242 -3118.055602 6.000000
-1697.538484 -3119.134179 6.000000
-1699.222726 -3120.212756 6.000000
-1700.906968 -3121.291334 6.000000
-1702.591210 -3122.369911 6.000000
-1704.275452 -3123.448488 6.000000
-1705.959694 -3124.527065 6.000000
-1707.643936 -3125.605642 6.000000
-1709.328178 -3126.684220 6.000000
-1711.468707 -3128.055000 6.000000
-1711.468707 -3128.055000 6.000000
-1712.698599 -3129.632139 6.000000
-1715.079295 -3132.685000 6.000000
-1715.079295 -3132.685000 6.000000
-1715.915585 -3134.501747 5.992956
-1716.751875 -3136.318494 5.985912
-1717.588165 -3138.135241 5.978868
-1718.424455 -3139.951988 5.971824
-1719.260745 -3141.768735 5.964780
-1720.097035 -3143.585482 5.957736
-1720.933325 -3145.402229 5.950693
-1721.769615 -3147.218976 5.943649
-1722.605905 -3149.035722 5.936605
-1723.442195 -3150.852469 5.929561
-1724.278485 -3152.669216 5.922517
-1725.114775 -3154.485963 5.915473
-1725.951065 -3156.302710 5.908429
-1726.787355 -3158.119457 5.901385
-1727.623645 -3159.936204 5.894341
-1728.459935 -3161.752951 5.887297
-1729.296225 -3163.569698 5.880253
-1730.132515 -3165.386445 5.873209
-1730.968804 -3167.203192 5.866165
-1731.805094 -3169.019939 5.859122
-1732.641384 -3170.836686 5.852078
-1733.477674 -3172.653433 5.845034
-1734.313964 -3174.470180 5.837990
-1735.150254 -3176.286927 5.830946
-1735.986544 -3178.103674 5.823902
-1736.822834 -3179.920421 5.816858
-1737.659124 -3181.737167 5.809814
-1738.495414 -3183.553914 5.802770
-1739.331704 -3185.370661 5.795726
-1740.167994 -3187.187408 5.788682
-1741.004284 -3189.004155 5.781638
-1741.840574 -3190.820902 5.774595
-1742.676864 -3192.637649 5.767551
-1743.513154 -3194.454396 5.760507
-1744.349444 -3196.271143 5.753463
-1745.185734 -3198.087890 5.746419
-1746.022024 -3199.904637 5.739375
-1746.858314 -3201.721384 5.732331
-1747.694604 -3203.538131 5.725287
-1748.530894 -3205.354878 5.718243
-1749.367184 -3207.171625 5.711199
-1750.203474 -3208.988372 5.704155
-1751.039764 -3210.805119 5.697111
-1751.876054 -3212.621866 5.690067
-1752.712344 -3214.438612 5.683024
-1753.548634 -3216.255359 5.675980
-1754.384924 -3218.072106 5.668936
-1755.221214 -3219.888853 5.661892
-1756.057504 -3221.705600 5.654848
-1756.893794 -3223.522347 5.647804
-1757.730084 -3225.339094 5.640760
-1758.566374 -3227.155841 5.633716
-1759.402664 -3228.972588 5.626672
-1760.238954 -3230.789335 5.619628
-1761.075244 -3232.606082 5.612584
-1761.911534 -3234.422829 5.605540
-1762.747824 -3236.239576 5.598496
-1763.584114 -3238.056323 5.591453
-1764.420404 -3239.873070 5.584409
-1765.256694 -3241.689817 5.577365
-1766.092984 -3243.506564 5.570321
-1766.929273 -3245.323311 5.563277
-1767.765563 -3247.140057 5.556233
-1768.601853 -3248.956804 5.549189
-1769.438143 -3250.773551 5.542145
-1770.274433 -3252.590298 5.535101
-1771.110723 -3254.407045 5.528057
-1771.947013 -3256.223792 5.521013
-1772.783303 -3258.040539 5.513969
-1774.441821 -3261.643484 5.500000
-1774.441821 -3261.643484 5.500000
-1774.968411 -3263.557028 5.747089
-1775.495001 -3265.470571 5.994177
-1776.021592 -3267.384115 6.241266
-1776.548182 -3269.297659 6.488355
-1777.074772 -3271.211203 6.735443
-1777.601363 -3273.124746 6.982532
-1778.127953 -3275.038290 7.229621
-1778.654543 -3276.951834 7.476710
-1779.181134 -3278.865378 7.723798
-1779.707724 -3280.778922 7.970887
-1780.234315 -3282.692465 8.217976
-1780.760905 -3284.606009 8.465064
-1781.287495 -3286.519553 8.712153
-1781.814086 -3288.433097 8.959242
-1782.340676 -3290.346640 9.206330
-1782.867266 -3292.260184 9.453419
-1783.393857 -3294.173728 9.700508
-1783.920447 -3296.087272 9.947597
-1784.447037 -3298.000816 10.194685
-1784.973628 -3299.914359 10.441774
-1785.500218 -3301.827903 10.688863
-1786.163308 -3304.237463 11.000000
-1786.163308 -3304.237463 11.000000
-1784.439613 -3305.251800 11.000000
-1782.715919 -3306.266136 11.000000
-1780.733465 -3307.432744 11.000000
-1780.733465 -3307.432744 11.000000
-1778.790188 -3307.905685 11.000000
-1776.846910 -3308.378626 11.000000
-1774.474102 -3308.956103 11.000000
-1774.474102 -3308.956103 11.000000
-1772.479672 -3308.806940 11.000000
-1770.485242 -3308.657776 11.000000
-1768.490812 -3308.508613 11.000000
-1766.496382 -3308.359449 11.000000
-1764.501953 -3308.210286 11.000000
-1762.507523 -3308.061122 11.000000
-1760.513093 -3307.911959 11.000000
-1758.518663 -3307.762795 11.000000
-1756.524233 -3307.613632 11.000000
-1754.529804 -3307.464468 11.000000
-1752.535374 -3307.315305 11.000000
-1750.540944 -3307.166142 11.000000
-1748.546514 -3307.016978 11.000000
-1746.552084 -3306.867815 11.000000
-1744.557655 -3306.718651 11.000000
-1742.563225 -3306.569488 11.000000
-1740.568795 -3306.420324 11.000000
-1738.574365 -3306.271161 11.000000
-1736.579935 -3306.121997 11.000000
-1734.585506 -3305.972834 11.000000
-1732.591076 -3305.823670 11.000000
-1730.596646 -3305.674507 11.000000
-1728.602216 -3305.525343 11.000000
-1726.607786 -3305.376180 11.000000
-1724.613357 -3305.227016 11.000000
-1722.618927 -3305.077853 11.000000
-1720.624497 -3304.928689 11.000000
-1718.630067 -3304.779526 11.000000
-1716.635637 -3304.630362 11.000000
-1714.641208 -3304.481199 11.000000
-1711.481384 -3304.244875 11.000000
-1711.481384 -3304.244875 11.000000
-1709.921737 -3305.440409 10.628248
-1708.362089 -3306.635942 10.256497
-1706.802442 -3307.831476 9.884745
-1705.242794 -3309.027009 9.512993
-1703.683146 -3310.222542 9.141241
-1702.123499 -3311.418076 8.769490
-1700.563851 -3312.613609 8.397738
-1699.004204 -3313.809143 8.025986
-1697.444556 -3315.004676 7.654235
-1695.884909 -3316.200209 7.282483
-1694.325261 -3317.395743 6.910731
-1692.765613 -3318.591276 6.538979
-1691.205966 -3319.786810 6.167228
-1688.406678 -3321.932578 5.500000
-1688.406678 -3321.932578 5.500000
-1686.784532 -3323.102467 5.500000
-1685.162386 -3324.272357 5.500000
-1683.540240 -3325.442247 5.500000
-1681.918094 -3326.612137 5.500000
-1680.295948 -3327.782027 5.500000
-1678.673802 -3328.951916 5.500000
-1677.051656 -3330.121806 5.500000
-1675.429510 -3331.291696 5.500000
-1673.807364 -3332.461586 5.500000
-1672.185217 -3333.631476 5.500000
-1670.563071 -3334.801365 5.500000
-1668.940925 -3335.971255 5.500000
-1667.318779 -3337.141145 5.500000
-1665.696633 -3338.311035 5.500000
-1664.074487 -3339.480925 5.500000
-1662.452341 -3340.650814 5.500000
-1660.830195 -3341.820704 5.500000
-1659.208049 -3342.990594 5.500000
-1657.585903 -3344.160484 5.500000
-1655.963757 -3345.330374 5.500000
-1654.341611 -3346.500263 5.500000
-1652.719465 -3347.670153 5.500000
-1651.097319 -3348.840043 5.500000
-1649.475173 -3350.009933 5.500000
-1647.853027 -3351.179823 5.500000
-1646.230880 -3352.349712 5.500000
-1644.608734 -3353.519602 5.500000
-1642.986588 -3354.689492 5.500000
-1641.364442 -3355.859382 5.500000
-1639.742296 -3357.029272 5.500000
-1638.120150 -3358.199162 5.500000
-1636.498004 -3359.369051 5.500000
-1634.875858 -3360.538941 5.500000
-1633.253712 -3361.708831 5.500000
-1631.631566 -3362.878721 5.500000
-1630.009420 -3364.048611 5.500000
-1628.387274 -3365.218500 5.500000
-1626.765128 -3366.388390 5.500000
-1625.142982 -3367.558280 5.500000
-1623.520836 -3368.728170 5.500000
-1621.898690 -3369.898060 5.500000
-1620.276543 -3371.067949 5.500000
-1618.654397 -3372.237839 5.500000
-1617.032251 -3373.407729 5.500000
-1615.410105 -3374.577619 5.500000
-1613.787959 -3375.747509 5.500000
-1610.792207 -3377.908041 5.500000
-1610.792207 -3377.908041 5.500000
-1609.303510 -3379.242671 5.550440
-1607.814813 -3380.577302 5.600879
-1606.326117 -3381.911932 5.651319
-1604.837420 -3383.246562 5.701759
-1603.348723 -3384.581192 5.752198
-1601.860026 -3385.915822 5.802638
-1600.371329 -3387.250452 5.853078
-1598.882632 -3388.585082 5.903517
-1596.035000 -3391.138009 6.000000
-1596.035000 -3391.138009 6.000000
-1598.012389 -3390.838121 6.000000
-1599.989778 -3390.538233 6.000000
-1601.967167 -3390.238344 6.000000
-1603.944556 -3389.938456 6.000000
-1605.921945 -3389.638568 6.000000
-1607.899334 -3389.338679 6.000000
-1609.876722 -3389.038791 6.000000
-1611.854111 -3388.738903 6.000000
-1613.831500 -3388.439014 6.000000
-1615.808889 -3388.139126 6.000000
-1617.786278 -3387.839237 6.000000
-1619.763667 -3387.539349 6.000000
-1621.741056 -3387.239461 6.000000
-1623.718445 -3386.939572 6.000000
-1625.695834 -3386.639684 6.000000
-1627.673223 -3386.339796 6.000000
-1629.650612 -3386.039907 6.000000
-1631.628001 -3385.740019 6.000000
-1633.605390 -3385.440130 6.000000
-1635.582779 -3385.140242 6.000000
-1637.560167 -3384.840354 6.000000
-1639.537556 -3384.540465 6.000000
-1641.514945 -3384.240577 6.000000
-1643.492334 -3383.940689 6.000000
-1645.469723 -3383.640800 6.000000
-1647.447112 -3383.340912 6.000000
-1649.424501 -3383.041024 6.000000
-1651.401890 -3382.741135 6.000000
-1653.379279 -3382.441247 6.000000
-1655.356668 -3382.141358 6.000000
-1657.334057 -3381.841470 6.000000
-1659.311446 -3381.541582 6.000000
-1661.288835 -3381.241693 6.000000
-1663.266224 -3380.941805 6.000000
-1665.243612 -3380.641917 6.000000
-1667.221001 -3380.342028 6.000000
-1669.198390 -3380.042140 6.000000
-1671.175779 -3379.742251 6.000000
-1673.153168 -3379.442363 6.000000
-1675.130557 -3379.142475 6.000000
-1677.107946 -3378.842586 6.000000
-1679.085335 -3378.542698 6.000000
-1681.062724 -3378.242810 6.000000
-1683.040113 -3377.942921 6.000000
-1685.017502 -3377.643033 6.000000
-1686.994891 -3377.343145 6.000000
-1688.972280 -3377.043256 6.000000
-1690.949668 -3376.743368 6.000000
-1692.927057 -3376.443479 6.000000
-1694.904446 -3376.143591 6.000000
-1696.881835 -3375.843703 6.000000
-1698.859224 -3375.543814 6.000000
-1700.836613 -3375.243926 6.000000
-1702.814002 -3374.944038 6.000000
-1704.791391 -3374.644149 6.000000
-1706.768780 -3374.344261 6.000000
-1708.746169 -3374.044373 6.000000
-1710.723558 -3373.744484 6.000000
-1712.700947 -3373.444596 6.000000
-1714.678336 -3373.144707 6.000000
-1716.655725 -3372.844819 6.000000
-1718.633113 -3372.544931 6.000000
-1720.610502 -3372.245042 6.000000
-1722.587891 -3371.945154 6.000000
-1724.565280 -3371.645266 6.000000
-1726.542669 -3371.345377 6.000000
-1728.520058 -3371.045489 6.000000
-1730.497447 -3370.745600 6.000000
-1732.474836 -3370.445712 6.000000
-1734.452225 -3370.145824 6.000000
-1736.429614 -3369.845935 6.000000
-1738.407003 -3369.546047 6.000000
-1740.384392 -3369.246159 6.000000
-1742.361781 -3368.946270 6.000000
-1744.339169 -3368.646382 6.000000
-1746.316558 -3368.346494 6.000000
-1748.293947 -3368.046605 6.000000
-1750.271336 -3367.746717 6.000000
-1752.248725 -3367.446828 6.000000
-1754.226114 -3367.146940 6.000000
-1756.203503 -3366.847052 6.000000
-1758.180892 -3366.547163 6.000000
-1760.158281 -3366.247275 6.000000
-1762.135670 -3365.947387 6.000000
-1764.113059 -3365.647498 6.000000
-1766.090448 -3365.347610 6.000000
-1768.067837 -3365.047721 6.000000
-1770.045226 -3364.747833 6.000000
-1772.022614 -3364.447945 6.000000
-1774.000003 -3364.148056 6.000000
-1775.977392 -3363.848168 6.000000
-1777.954781 -3363.548280 6.000000
-1779.932170 -3363.248391 6.000000
-1781.909559 -3362.948503 6.000000
-1783.886948 -3362.648615 6.000000
-1785.864337 -3362.348726 6.000000
-1787.841726 -3362.048838 6.000000
-1789.819115 -3361.748949 6.000000
-1791.796504 -3361.449061 6.000000
-1794.467317 -3361.044009 6.000000
-1794.467317 -3361.044009 6.000000
-1794.275956 -3359.753926 7.516267
-1794.084595 -3358.463843 9.032535
-1793.710085 -3355.939040 12.000000
-1793.710085 -3355.939040 12.000000
-1793.498130 -3354.495750 13.368206
-1793.286175 -3353.052459 14.736412
-1793.074220 -3351.609169 16.104618
-1792.862265 -3350.165878 17.472824
-1792.650310 -3348.722587 18.841029
-1792.438355 -3347.279297 20.209235
-1792.226400 -3345.836006 21.577441
-1792.014445 -3344.392716 22.945647
-1791.802490 -3342.949425 24.313853
-1791.590535 -3341.506135 25.682059
-1791.378580 -3340.062844 27.050265
-1791.166625 -3338.619553 28.418471
-1790.954670 -3337.176263 29.786676
-1790.742715 -3335.732972 31.154882
-1790.530760 -3334.289682 32.523088
-1790.318805 -3332.846391 33.891294
-1790.106850 -3331.403100 35.259500
-1789.894895 -3329.959810 36.627706
-1789.682940 -3328.516519 37.995912
-1789.470985 -3327.073229 39.364118
-1789.259030 -3325.629938 40.732324
-1789.047075 -3324.186647 42.100529
-1788.835120 -3322.743357 43.468735
-1788.623165 -3321.300066 44.836941
-1788.411210 -3319.856776 46.205147
-1788.199255 -3318.413485 47.573353
-1787.987300 -3316.970194 48.941559
-1787.775345 -3315.526904 50.309765
-1787.563390 -3314.083613 51.677971
-1787.351435 -3312.640323 53.046176
-1787.139480 -3311.197032 54.414382
-1786.927525 -3309.753741 55.782588
-1786.715570 -3308.310451 57.150794
-1786.503615 -3306.867160 58.519000
-1786.291660 -3305.423870 59.887206
-1786.079705 -3303.980579 61.255412
-1785.867750 -3302.537288 62.623618
-1785.655795 -3301.093998 63.991824
-1785.443840 -3299.650707 65.360029
-1785.231885 -3298.207417 66.728235
-1785.019930 -3296.764126 68.096441
-1784.807975 -3295.320835 69.464647
-1784.596020 -3293.877545 70.832853
-1784.384065 -3292.434254 72.201059
-1784.172110 -3290.990964 73.569265
-1783.960155 -3289.547673 74.937471
-1783.748200 -3288.104382 76.305676
-1783.536245 -3286.661092 77.673882
-1783.324290 -3285.217801 79.042088
-1783.112335 -3283.774511 80.410294
-1782.900380 -3282.331220 81.778500
-1782.688425 -3280.887929 83.146706
-1782.476470 -3279.444639 84.514912
-1782.264515 -3278.001348 85.883118
-1782.052560 -3276.558058 87.251324
-1781.840605 -3275.114767 88.619529
-1781.628650 -3273.671476 89.987735
-1781.416695 -3272.228186 91.355941
-1781.204740 -3270.784895 92.724147
-1780.992785 -3269.341605 94.092353
-1780.780830 -3267.898314 95.460559
-1780.568875 -3266.455024 96.828765
-1780.356920 -3265.011733 98.196971
-1780.144965 -3263.568442 99.565176
-1779.767776 -3261.000000 102.000000
-1779.767776 -3261.000000 102.000000
-1780.266956 -3259.063816 101.955146
-1780.766135 -3257.127632 101.910293
-1781.265315 -3255.191449 101.865439
-1781.764495 -3253.255265 101.820585
-1782.263675 -3251.319081 101.775732
-1782.762855 -3249.382897 101.730878
-1783.262034 -3247.446713 101.686024
-1783.761214 -3245.510530 101.641171
-1784.260394 -3243.574346 101.596317
-1784.759574 -3241.638162 101.551463
-1785.258754 -3239.701978 101.506610
-1785.757933 -3237.765795 101.461756
-1786.257113 -3235.829611 101.416902
-1786.756293 -3233.893427 101.372049
-1787.255473 -3231.957243 101.327195
-1787.754653 -3230.021059 101.282341
-1788.253832 -3228.084876 101.237487
-1788.753012 -3226.148692 101.192634
-1789.252192 -3224.212508 101.147780
-1789.751372 -3222.276324 101.102926
-1790.250552 -3220.340140 101.058073
-1790.749731 -3218.403957 101.013219
-1791.248911 -3216.467773 100.968365
-1791.748091 -3214.531589 100.923512
-1792.247271 -3212.595405 100.878658
-1792.746451 -3210.659221 100.833804
-1793.245630 -3208.723038 100.788951
-1793.744810 -3206.786854 100.744097
-1794.243990 -3204.850670 100.699243
-1794.743170 -3202.914486 100.654390
-1795.242350 -3200.978302 100.609536
-1795.741529 -3199.042119 100.564682
-1796.240709 -3197.105935 100.519829
-1796.739889 -3195.169751 100.474975
-1797.239069 -3193.233567 100.430121
-1797.738249 -3191.297384 100.385268
-1798.237428 -3189.361200 100.340414
-1798.736608 -3187.425016 100.295560
-1799.235788 -3185.488832 100.250707
-1799.734968 -3183.552648 100.205853
-1800.234148 -3181.616465 100.160999
-1800.733328 -3179.680281 100.116146
-1801.232507 -3177.744097 100.071292
-1801.731687 -3175.807913 100.026438
-1802.230867 -3173.871729 99.981584
-1802.730047 -3171.935546 99.936731
-1803.229227 -3169.999362 99.891877
-1803.728406 -3168.063178 99.847023
-1804.227586 -3166.126994 99.802170
-1804.726766 -3164.190810 99.757316
-1805.225946 -3162.254627 99.712462
-1805.725126 -3160.318443 99.667609
-1806.224305 -3158.382259 99.622755
-1806.723485 -3156.446075 99.577901
-1807.222665 -3154.509892 99.533048
-1807.721845 -3152.573708 99.488194
-1808.221025 -3150.637524 99.443340
-1808.720204 -3148.701340 99.398487
-1809.219384 -3146.765156 99.353633
-1809.718564 -3144.828973 99.308779
-1810.217744 -3142.892789 99.263926
-1810.716924 -3140.956605 99.219072
-1811.216103 -3139.020421 99.174218
-1811.715283 -3137.084237 99.129365
-1812.214463 -3135.148054 99.084511
-1812.713643 -3133.211870 99.039657
-1813.212823 -3131.275686 98.994804
-1813.712002 -3129.339502 98.949950
-1814.211182 -3127.403318 98.905096
-1814.710362 -3125.467135 98.860243
-1815.209542 -3123.530951 98.815389
-1815.708722 -3121.594767 98.770535
-1816.207901 -3119.658583 98.725681
-1816.707081 -3117.722400 98.680828
-1817.206261 -3115.786216 98.635974
-1817.705441 -3113.850032 98.591120
-1818.204621 -3111.913848 98.546267
-1818.703800 -3109.977664 98.501413
-1819.202980 -3108.041481 98.456559
-1819.702160 -3106.105297 98.411706
-1820.201340 -3104.169113 98.366852
-1820.700520 -3102.232929 98.321998
-1821.199699 -3100.296745 98.277145
-1821.698879 -3098.360562 98.232291
-1822.198059 -3096.424378 98.187437
-1822.697239 -3094.488194 98.142584
-1823.196419 -3092.552010 98.097730
-1823.695598 -3090.615826 98.052876
-1824.194778 -3088.679643 98.008023
-1824.693958 -3086.743459 97.963169
-1825.193138 -3084.807275 97.918315
-1825.692318 -3082.871091 97.873462
-1826.191498 -3080.934907 97.828608
-1826.690677 -3078.998724 97.783754
-1827.189857 -3077.062540 97.738901
-1827.689037 -3075.126356 97.694047
-1828.188217 -3073.190172 97.649193
-1828.687397 -3071.253989 97.604340
-1829.186576 -3069.317805 97.559486
-1829.685756 -3067.381621 97.514632
-1830.184936 -3065.445437 97.469778
-1830.684116 -3063.509253 97.424925
-1831.183296 -3061.573070 97.380071
-1831.682475 -3059.636886 97.335217
-1832.181655 -3057.700702 97.290364
-1832.680835 -3055.764518 97.245510
-1833.180015 -3053.828334 97.200656
-1833.679195 -3051.892151 97.155803
-1834.178374 -3049.955967 97.110949
-1834.677554 -3048.019783 97.066095
-1835.176734 -3046.083599 97.021242
-1835.675914 -3044.147415 96.976388
-1836.175094 -3042.211232 96.931534
-1836.674273 -3040.275048 96.886681
-1837.173453 -3038.338864 96.841827
-1837.672633 -3036.402680 96.796973
-1838.171813 -3034.466497 96.752120
-1838.670993 -3032.530313 96.707266
-1839.170172 -3030.594129 96.662412
-1839.669352 -3028.657945 96.617559
-1840.168532 -3026.721761 96.572705
-1840.667712 -3024.785578 96.527851
-1841.166892 -3022.849394 96.482998
-1841.666071 -3020.913210 96.438144
-1842.165251 -3018.977026 96.393290
-1842.664431 -3017.040842 96.348437
-1843.163611 -3015.104659 96.303583
-1843.662791 -3013.168475 96.258729
-1844.161970 -3011.232291 96.213875
-1844.661150 -3009.296107 96.169022
-1845.160330 -3007.359923 96.124168
-1845.659510 -3005.423740 96.079314
-1846.542206 -3002.000000 96.000000
-1846.542206 -3002.000000 96.000000
-1844.718426 -3001.995725 95.179141
-1842.894647 -3001.991449 94.358282
-1841.070867 -3001.987174 93.537423
-1839.247087 -3001.982899 92.716564
-1837.423308 -3001.978623 91.895705
-1835.599528 -3001.974348 91.074846
-1833.775749 -3001.970073 90.253986
-1831.951969 -3001.965798 89.433127
-1830.128189 -3001.961522 88.612268
-1828.304410 -3001.957247 87.791409
-1826.480630 -3001.952972 86.970550
-1824.656850 -3001.948696 86.149691
-1822.833071 -3001.944421 85.328832
-1821.009291 -3001.940146 84.507973
-1819.185512 -3001.935870 83.687114
-1817.361732 -3001.931595 82.866255
-1815.537952 -3001.927320 82.045396
-1813.714173 -3001.923044 81.224537
-1811.890393 -3001.918769 80.403678
-1810.066614 -3001.914494 79.582818
-1808.242834 -3001.910219 78.761959
-1806.419054 -3001.905943 77.941100
-1804.595275 -3001.901668 77.120241
-1802.771495 -3001.897393 76.299382
-1800.947715 -3001.893117 75.478523
-1799.123936 -3001.888842 74.657664
-1797.300156 -3001.884567 73.836805
-1795.476377 -3001.880291 73.015946
-1793.652597 -3001.876016 72.195087
-1791.828817 -3001.871741 71.374228
-1790.005038 -3001.867465 70.553369
-1788.181258 -3001.863190 69.732510
-1786.357478 -3001.858915 68.911650
-1784.533699 -3001.854640 68.090791
-1782.709919 -3001.850364 67.269932
-1780.886140 -3001.846089 66.449073
-1779.062360 -3001.841814 65.628214
-1777.238580 -3001.837538 64.807355
-1775.414801 -3001.833263 63.986496
-1773.591021 -3001.828988 63.165637
-1771.767242 -3001.824712 62.344778
-1769.943462 -3001.820437 61.523919
-1768.119682 -3001.816162 60.703060
-1766.295903 -3001.811886 59.882201
-1764.472123 -3001.807611 59.061342
-1762.648343 -3001.803336 58.240482
-1760.824564 -3001.799061 57.419623
-1759.000784 -3001.794785 56.598764
-1757.177005 -3001.790510 55.777905
-1755.353225 -3001.786235 54.957046
-1753.529445 -3001.781959 54.136187
-1751.705666 -3001.777684 53.315328
-1749.881886 -3001.773409 52.494469
-1748.058106 -3001.769133 51.673610
-1746.234327 -3001.764858 50.852751
-1744.410547 -3001.760583 50.031892
-1742.586768 -3001.756307 49.211033
-1740.762988 -3001.752032 48.390174
-1738.939208 -3001.747757 47.569314
-1737.115429 -3001.743482 46.748455
-1735.291649 -3001.739206 45.927596
-1733.467870 -3001.734931 45.106737
-1731.644090 -3001.730656 44.285878
-1729.820310 -3001.726380 43.465019
-1727.996531 -3001.722105 42.644160
-1726.172751 -3001.717830 41.823301
-1724.348971 -3001.713554 41.002442
-1722.525192 -3001.709279 40.181583
-1720.701412 -3001.705004 39.360724
-1718.877633 -3001.700728 38.539865
-1717.053853 -3001.696453 37.719005
-1715.230073 -3001.692178 36.898146
-1713.406294 -3001.687903 36.077287
-1711.582514 -3001.683627 35.256428
-1709.758735 -3001.679352 34.435569
-1707.934955 -3001.675077 33.614710
-1706.111175 -3001.670801 32.793851
-1704.287396 -3001.666526 31.972992
-1702.463616 -3001.662251 31.152133
-1700.639836 -3001.657975 30.331274
-1698.816057 -3001.653700 29.510415
-1696.992277 -3001.649425 28.689556
-1695.168498 -3001.645149 27.868697
-1693.344718 -3001.640874 27.047837
-1691.520938 -3001.636599 26.226978
-1689.697159 -3001.632324 25.406119
-1687.873379 -3001.628048 24.585260
-1686.049599 -3001.623773 23.764401
-1684.225820 -3001.619498 22.943542
-1682.402040 -3001.615222 22.122683
-1680.578261 -3001.610947 21.301824
-1678.754481 -3001.606672 20.480965
-1676.930701 -3001.602396 19.660106
-1675.106922 -3001.598121 18.839247
-1673.283142 -3001.593846 18.018388
-1671.459363 -3001.589570 17.197529
-1669.635583 -3001.585295 16.376669
-1667.811803 -3001.581020 15.555810
-1665.988024 -3001.576745 14.734951
-1664.164244 -3001.572469 13.914092
-1662.340464 -3001.568194 13.093233
-1660.516685 -3001.563919 12.272374
-1658.692905 -3001.559643 11.451515
-1656.869126 -3001.555368 10.630656
-1655.045346 -3001.551093 9.809797
-1653.221566 -3001.546817 8.988938
-1651.397787 -3001.542542 8.168079
-1649.574007 -3001.538267 7.347220
-1647.750227 -3001.533991 6.526361
-1645.926448 -3001.529716 5.705501
-1644.102668 -3001.525441 4.884642
-1642.278889 -3001.521166 4.063783
-1640.455109 -3001.516890 3.242924
-1638.631329 -3001.512615 2.422065
-1636.807550 -3001.508340 1.601206
-1633.250000 -3001.500000 0.000000
-1633.250000 -3001.500000 0.000000
-1633.250000 -3000.892822 -1.905606
-1633.250000 -3000.285643 -3.811212
-1633.250000 -2999.678465 -5.716818
-1633.250000 -2999.071286 -7.622424
-1633.250000 -2998.464108 -9.528030
-1633.250000 -2997.856930 -11.433636
-1633.250000 -2997.249751 -13.339242
-1633.250000 -2996.642573 -15.244848
-1633.250000 -2996.035394 -17.150454
-1633.250000 -2995.428216 -19.056060
-1633.250000 -2994.821038 -20.961666
-1633.250000 -2994.213859 -22.867273
-1633.250000 -2993.606681 -24.772879
-1633.250000 -2992.999502 -26.678485
-1633.250000 -2992.392324 -28.584091
-1633.250000 -2991.785146 -30.489697
-1633.250000 -2991.177967 -32.395303
-1633.250000 -2990.570789 -34.300909
-1633.250000 -2989.963610 -36.206515
-1633.250000 -2989.356432 -38.112121
-1633.250000 -2988.749254 -40.017727
-1633.250000 -2988.142075 -41.923333
-1633.250000 -2987.534897 -43.828939
-1633.250000 -2986.927718 -45.734545
-1633.250000 -2986.320540 -47.640151
-1633.250000 -2985.713362 -49.545757
-1633.250000 -2985.106183 -51.451363
-1633.250000 -2984.499005 -53.356969
-1633.250000 -2983.891827 -55.262575
-1633.250000 -2983.284648 -57.168181
-1633.250000 -2982.677470 -59.073787
-1633.250000 -2982.070291 -60.979393
-1633.250000 -2981.463113 -62.884999
-1633.250000 -2980.855935 -64.790605
-1633.250000 -2980.248756 -66.696212
-1633.250000 -2979.641578 -68.601818
-1633.250000 -2979.034399 -70.507424
-1633.250000 -2978.427221 -72.413030
-1633.250000 -2977.820043 -74.318636
-1633.250000 -2977.212864 -76.224242
-1633.250000 -2976.605686 -78.129848
-1633.250000 -2975.998507 -80.035454
-1633.250000 -2975.391329 -81.941060
-1633.250000 -2974.784151 -83.846666
-1633.250000 -2974.176972 -85.752272
-1633.250000 -2973.569794 -87.657878
-1633.250000 -2972.962615 -89.563484
-1633.250000 -2972.355437 -91.469090
-1633.250000 -2971.748259 -93.374696
-1633.250000 -2971.141080 -95.280302
-1633.250000 -2970.533902 -97.185908
-1633.250000 -2969.926723 -99.091514
-1633.250000 -2969.000000 -102.000000
-1633.250000 -2969.000000 -102.000000
-1634.823108 -2967.764956 -102.000000
-1636.396215 -2966.529913 -102.000000
-1637.969323 -2965.294869 -102.000000
-1639.542430 -2964.059826 -102.000000
-1641.115538 -2962.824782 -102.000000
-1642.688645 -2961.589738 -102.000000
-1644.261753 -2960.354695 -102.000000
-1645.834860 -2959.119651 -102.000000
-1647.407968 -2957.884607 -102.000000
-1648.981075 -2956.649564 -102.000000
-1650.554183 -2955.414520 -102.000000
-1652.127290 -2954.179477 -102.000000
-1653.700398 -2952.944433 -102.000000
-1655.273505 -2951.709389 -102.000000
-1656.846613 -2950.474346 -102.000000
-1658.419720 -2949.239302 -102.000000
-1659.992828 -2948.004258 -102.000000
-1661.565935 -2946.769215 -102.000000
-1663.139043 -2945.534171 -102.000000
-1664.712150 -2944.299128 -102.000000
-1666.285258 -2943.064084 -102.000000
-1667.858365 -2941.829040 -102.000000
-1669.431473 -2940.593997 -102.000000
-1671.004580 -2939.358953 -102.000000
-1672.577688 -2938.123909 -102.000000
-1674.150795 -2936.888866 -102.000000
-1675.723903 -2935.653822 -102.000000
-1677.297010 -2934.418779 -102.000000
-1678.870118 -2933.183735 -102.000000
-1680.443225 -2931.948691 -102.000000
-1682.016333 -2930.713648 -102.000000
-1683.589440 -2929.478604 -102.000000
-1685.162548 -2928.243560 -102.000000
-1686.735655 -2927.008517 -102.000000
-1688.308763 -2925.773473 -102.000000
-1689.881870 -2924.538430 -102.000000
-1691.454978 -2923.303386 -102.000000
-1693.028085 -2922.068342 -102.000000
-1694.601193 -2920.833299 -102.000000
-1696.174301 -2919.598255 -102.000000
-1697.747408 -2918.363211 -102.000000
-1699.320516 -2917.128168 -102.000000
-1700.893623 -2915.893124 -102.000000
-1702.466731 -2914.658081 -102.000000
-1704.039838 -2913.423037 -102.000000
-1705.612946 -2912.187993 -102.000000
-1707.186053 -2910.952950 -102.000000
-1708.759161 -2909.717906 -102.000000
-1710.332268 -2908.482862 -102.000000
-1711.905376 -2907.247819 -102.000000
-1713.478483 -2906.012775 -102.000000
-1715.051591 -2904.777732 -102.000000
-1716.624698 -2903.542688 -102.000000
-1718.197806 -2902.307644 -102.000000
-1719.770913 -2901.072601 -102.000000
-1721.344021 -2899.837557 -102.000000
-1722.917128 -2898.602513 -102.000000
-1724.490236 -2897.367470 -102.000000
-1726.063343 -2896.132426 -102.000000
-1727.636451 -2894.897383 -102.000000
-1729.209558 -2893.662339 -102.000000
-1730.782666 -2892.427295 -102.000000
-1732.355773 -2891.192252 -102.000000
-1733.928881 -2889.957208 -102.000000
-1735.501988 -2888.722164 -102.000000
-1737.075096 -2887.487121 -102.000000
-1738.648203 -2886.252077 -102.000000
-1740.221311 -2885.017034 -102.000000
-1741.794418 -2883.781990 -102.000000
-1743.367526 -2882.546946 -102.000000
-1744.940633 -2881.311903 -102.000000
-1746.513741 -2880.076859 -102.000000
-1748.086848 -2878.841815 -102.000000
-1749.659956 -2877.606772 -102.000000
-1751.233063 -2876.371728 -102.000000
-1752.806171 -2875.136685 -102.000000
-1754.379278 -2873.901641 -102.000000
-1755.952386 -2872.666597 -102.000000
-1757.525494 -2871.431554 -102.000000
-1759.098601 -2870.196510 -102.000000
-1760.671709 -2868.961466 -102.000000
-1762.244816 -2867.726423 -102.000000
-1763.817924 -2866.491379 -102.000000
-1765.391031 -2865.256336 -102.000000
-1766.964139 -2864.021292 -102.000000
-1768.537246 -2862.786248 -102.000000
-1770.110354 -2861.551205 -102.000000
-1771.683461 -2860.316161 -102.000000
-1773.256569 -2859.081117 -102.000000
-1774.829676 -2857.846074 -102.000000
-1776.402784 -2856.611030 -102.000000
-1777.975891 -2855.375987 -102.000000
-1779.548999 -2854.140943 -102.000000
-1781.122106 -2852.905899 -102.000000
-1782.695214 -2851.670856 -102.000000
-1784.268321 -2850.435812 -102.000000
-1785.841429 -2849.200768 -102.000000
-1787.414536 -2847.965725 -102.000000
-1788.987644 -2846.730681 -102.000000
-1790.560751 -2845.495638 -102.000000
-1792.133859 -2844.260594 -102.000000
-1793.706966 -2843.025550 -102.000000
-1795.280074 -2841.790507 -102.000000
-1796.853181 -2840.555463 -102.000000
-1798.426289 -2839.320419 -102.000000
-1799.999396 -2838.085376 -102.000000
-1801.572504 -2836.850332 -102.000000
-1803.145611 -2835.615289 -102.000000
-1804.718719 -2834.380245 -102.000000
-1806.291826 -2833.145201 -102.000000
-1807.864934 -2831.910158 -102.000000
-1809.438041 -2830.675114 -102.000000
-1811.011149 -2829.440071 -102.000000
-1812.584256 -2828.205027 -102.000000
-1814.157364 -2826.969983 -102.000000
-1815.730471 -2825.734940 -102.000000
-1817.303579 -2824.499896 -102.000000
-1818.876687 -2823.264852 -102.000000
-1820.449794 -2822.029809 -102.000000
-1822.022902 -2820.794765 -102.000000
-1823.596009 -2819.559722 -102.000000
-1825.169117 -2818.324678 -102.000000
-1826.742224 -2817.089634 -102.000000
-1828.315332 -2815.854591 -102.000000
-1829.888439 -2814.619547 -102.000000
-1831.461547 -2813.384503 -102.000000
-1833.034654 -2812.149460 -102.000000
-1834.607762 -2810.914416 -102.000000
-1836.180869 -2809.679373 -102.000000
-1837.753977 -2808.444329 -102.000000
-1839.327084 -2807.209285 -102.000000
-1840.900192 -2805.974242 -102.000000
-1842.473299 -2804.739198 -102.000000
-1844.046407 -2803.504154 -102.000000
-1845.619514 -2802.269111 -102.000000
-1847.192622 -2801.034067 -102.000000
-1848.765729 -2799.799024 -102.000000
-1850.338837 -2798.563980 -102.000000
-1851.911944 -2797.328936 -102.000000
-1853.485052 -2796.093893 -102.000000
-1855.058159 -2794.858849 -102.000000
-1856.631267 -2793.623805 -102.000000
-1858.204374 -2792.388762 -102.000000
-1859.777482 -2791.153718 -102.000000
-1861.350589 -2789.918675 -102.000000
-1862.923697 -2788.683631 -102.000000
-1864.496804 -2787.448587 -102.000000
-1866.069912 -2786.213544 -102.000000
-1867.643019 -2784.978500 -102.000000
-1869.216127 -2783.743456 -102.000000
-1870.789234 -2782.508413 -102.000000
-1872.362342 -2781.273369 -102.000000
-1873.935449 -2780.038326 -102.000000
-1875.508557 -2778.803282 -102.000000
-1877.081665 -2777.568238 -102.000000
-1878.654772 -2776.333195 -102.000000
-1880.227880 -2775.098151 -102.000000
-1881.800987 -2773.863107 -102.000000
-1883.374095 -2772.628064 -102.000000
-1884.947202 -2771.393020 -102.000000
-1886.520310 -2770.157977 -102.000000
-1888.093417 -2768.922933 -102.000000
-1889.666525 -2767.687889 -102.000000
-1891.239632 -2766.452846 -102.000000
-1892.812740 -2765.217802 -102.000000
-1894.385847 -2763.982758 -102.000000
-1895.958955 -2762.747715 -102.000000
-1897.532062 -2761.512671 -102.000000
-1899.105170 -2760.277628 -102.000000
-1900.678277 -2759.042584 -102.000000
-1902.251385 -2757.807540 -102.000000
-1903.824492 -2756.572497 -102.000000
-1905.397600 -2755.337453 -102.000000
-1906.970707 -2754.102409 -102.000000
-1908.543815 -2752.867366 -102.000000
-1910.116922 -2751.632322 -102.000000
-1911.690030 -2750.397279 -102.000000
-1913.263137 -2749.162235 -102.000000
-1914.836245 -2747.927191 -102.000000
-1916.409352 -2746.692148 -102.000000
-1917.982460 -2745.457104 -102.000000
-1919.555567 -2744.222060 -102.000000
-1921.128675 -2742.987017 -102.000000
-1922.701782 -2741.751973 -102.000000
-1924.274890 -2740.516930 -102.000000
-1925.847997 -2739.281886 -102.000000
-1927.421105 -2738.046842 -102.000000
-1928.994212 -2736.811799 -102.000000
-1930.567320 -2735.576755 -102.000000
-1932.140427 -2734.341711 -102.000000
-1933.713535 -2733.106668 -102.000000
-1935.286642 -2731.871624 -102.000000
-1936.859750 -2730.636581 -102.000000
-1938.432858 -2729.401537 -102.000000
-1940.005965 -2728.166493 -102.000000
-1941.579073 -2726.931450 -102.000000
-1943.152180 -2725.696406 -102.000000
-1944.725288 -2724.461362 -102.000000
-1946.298395 -2723.226319 -102.000000
-1947.871503 -2721.991275 -102.000000
-1949.444610 -2720.756232 -102.000000
-1952.000000 -2718.750000 -102.000000
-1952.000000 -2718.750000 -102.000000
-1953.788850 -2718.745616 -101.105575
-1955.577700 -2718.741231 -100.211150
-1957.366550 -2718.736847 -99.316725
-1959.155400 -2718.732462 -98.422300
-1960.944250 -2718.728078 -97.527875
-1962.733101 -2718.723693 -96.633450
-1964.521951 -2718.719309 -95.739025
-1966.310801 -2718.714925 -94.844600
-1968.099651 -2718.710540 -93.950175
-1969.888501 -2718.706156 -93.055750
-1971.677351 -2718.701771 -92.161325
-1973.466201 -2718.697387 -91.266899
-1975.255051 -2718.693002 -90.372474
-1977.043901 -2718.688618 -89.478049
-1978.832751 -2718.684233 -88.583624
-1980.621601 -2718.679849 -87.689199
-1982.410451 -2718.675465 -86.794774
-1984.199302 -2718.671080 -85.900349
-1985.988152 -2718.666696 -85.005924
-1987.777002 -2718.662311 -84.111499
-1989.565852 -2718.657927 -83.217074
-1991.354702 -2718.653542 -82.322649
-1993.143552 -2718.649158 -81.428224
-1994.932402 -2718.644774 -80.533799
-1996.721252 -2718.640389 -79.639374
-1998.510102 -2718.636005 -78.744949
-2000.298952 -2718.631620 -77.850524
-2002.087802 -2718.627236 -76.956099
-2003.876652 -2718.622851 -76.061674
-2005.665503 -2718.618467 -75.167249
-2007.454353 -2718.614082 -74.272824
-2009.243203 -2718.609698 -73.378399
-2011.032053 -2718.605314 -72.483974
-2012.820903 -2718.600929 -71.589549
-2014.609753 -2718.596545 -70.695124
-2016.398603 -2718.592160 -69.800698
-2018.187453 -2718.587776 -68.906273
-2019.976303 -2718.583391 -68.011848
