64.000000 -558.000000 -244.000000
64.000000 -560.000000 -244.000000
64.000000 -562.000000 -244.000000
64.000000 -564.000000 -244.000000
64.000000 -566.000000 -244.000000
64.000000 -568.000000 -244.000000
64.000000 -570.000000 -244.000000
64.000000 -572.000000 -244.000000
64.000000 -574.000000 -244.000000
64.000000 -576.000000 -244.000000
64.000000 -578.000000 -244.000000
64.000000 -580.000000 -244.000000
64.000000 -582.000000 -244.000000
64.000000 -584.000000 -244.000000
64.000000 -586.000000 -244.000000
64.000000 -588.000000 -244.000000
64.000000 -590.000000 -244.000000
64.000000 -592.000000 -244.000000
64.000000 -594.000000 -244.000000
64.000000 -596.000000 -244.000000
64.000000 -598.000000 -244.000000
64.000000 -600.000000 -244.000000
64.000000 -602.000000 -244.000000
64.000000 -604.000000 -244.000000
64.000000 -606.000000 -244.000000
64.000000 -608.000000 -244.000000
64.000000 -610.000000 -244.000000
64.000000 -612.000000 -244.000000
64.000000 -614.000000 -244.000000
64.000000 -616.000000 -244.000000
64.000000 -618.000000 -244.000000
64.000000 -620.000000 -244.000000
64.000000 -622.000000 -244.000000
64.000000 -624.000000 -244.000000
64.000000 -626.000000 -244.000000
64.000000 -628.000000 -244.000000
64.000000 -630.000000 -244.000000
64.000000 -632.000000 -244.000000
64.000000 -634.000000 -244.000000
64.000000 -636.000000 -244.000000
64.000000 -638.000000 -244.000000
64.000000 -640.000000 -244.000000
64.000000 -642.000000 -244.000000
64.000000 -644.000000 -244.000000
64.000000 -646.000000 -244.000000
64.000000 -648.000000 -244.000000
64.000000 -650.000000 -244.000000
64.000000 -652.000000 -244.000000
64.000000 -654.000000 -244.000000
64.000000 -656.000000 -244.000000
64.000000 -658.000000 -244.000000
64.000000 -660.000000 -244.000000
64.000000 -662.000000 -244.000000
64.000000 -664.000000 -244.000000
64.000000 -666.000000 -244.000000
64.000000 -668.000000 -244.000000
64.000000 -670.000000 -244.000000
64.000000 -672.000000 -244.000000
64.000000 -674.000000 -244.000000
64.000000 -676.000000 -244.000000
64.000000 -678.000000 -244.000000
64.000000 -680.000000 -244.000000
64.000000 -682.000000 -244.000000
64.000000 -684.000000 -244.000000
64.000000 -686.000000 -244.000000
64.000000 -688.000000 -244.000000
64.000000 -690.000000 -244.000000
64.000000 -692.000000 -244.000000
64.000000 -694.000000 -244.000000
64.000000 -696.000000 -244.000000
64.000000 -698.000000 -244.000000
64.000000 -700.000000 -244.000000
64.000000 -702.000000 -244.000000
64.000000 -704.000000 -244.000000
64.000000 -706.000000 -244.000000
64.000000 -708.000000 -244.000000
64.000000 -710.000000 -244.000000
64.000000 -712.000000 -244.000000
64.000000 -714.000000 -244.000000
64.000000 -716.000000 -244.000000
64.000000 -718.000000 -244.000000
64.000000 -720.000000 -244.000000
64.000000 -722.000000 -244.000000
64.000000 -724.000000 -244.000000
64.000000 -726.000000 -244.000000
64.000000 -728.000000 -244.000000
64.000000 -730.000000 -244.000000
64.000000 -732.000000 -244.000000
64.000000 -734.000000 -244.000000
64.000000 -736.000000 -244.000000
64.000000 -738.000000 -244.000000
64.000000 -740.000000 -244.000000
64.000000 -742.000000 -244.000000
64.000000 -744.000000 -244.000000
64.000000 -746.000000 -244.000000
64.000000 -748.000000 -244.000000
64.000000 -750.000000 -244.000000
64.000000 -752.000000 -244.000000
64.000000 -754.000000 -244.000000
64.000000 -756.000000 -244.000000
64.000000 -758.000000 -244.000000
64.000000 -760.000000 -244.000000
64.000000 -762.000000 -244.000000
64.000000 -764.000000 -244.000000
64.000000 -766.000000 -244.000000
64.000000 -768.000000 -244.000000
64.000000 -770.000000 -244.000000
64.000000 -772.000000 -244.000000
64.000000 -774.000000 -244.000000
64.000000 -776.000000 -244.000000
64.000000 -778.000000 -244.000000
64.000000 -780.000000 -244.000000
64.000000 -782.000000 -244.000000
64.000000 -784.000000 -244.000000
64.000000 -786.000000 -244.000000
64.000000 -788.000000 -244.000000
64.000000 -790.000000 -244.000000
64.000000 -792.000000 -244.000000
64.000000 -794.000000 -244.000000
64.000000 -796.000000 -244.000000
64.000000 -798.000000 -244.000000
64.000000 -800.000000 -244.000000
64.000000 -802.000000 -244.000000
64.000000 -804.000000 -244.000000
64.000000 -806.000000 -244.000000
64.000000 -808.000000 -244.000000
64.000000 -810.000000 -244.000000
64.000000 -812.000000 -244.000000
64.000000 -814.000000 -244.000000
64.000000 -816.000000 -244.000000
64.000000 -818.000000 -244.000000
64.000000 -820.000000 -244.000000
64.000000 -822.000000 -244.000000
64.000000 -824.000000 -244.000000
64.000000 -826.000000 -244.000000
64.000000 -828.000000 -244.000000
64.000000 -832.000000 -244.000000
64.000000 -832.000000 -244.000000
63.007722 -833.736486 -244.000000
62.015444 -835.472973 -244.000000
61.023166 -837.209459 -244.000000
60.030888 -838.945945 -244.000000
59.038611 -840.682431 -244.000000
58.046333 -842.418918 -244.000000
57.054055 -844.155404 -244.000000
56.061777 -845.891890 -244.000000
55.069499 -847.628377 -244.000000
54.077221 -849.364863 -244.000000
53.084943 -851.101349 -244.000000
52.092665 -852.837835 -244.000000
51.100388 -854.574322 -244.000000
50.108110 -856.310808 -244.000000
49.115832 -858.047294 -244.000000
48.123554 -859.783781 -244.000000
47.131276 -861.520267 -244.000000
46.138998 -863.256753 -244.000000
45.146720 -864.993239 -244.000000
44.154442 -866.729726 -244.000000
43.162165 -868.466212 -244.000000
42.169887 -870.202698 -244.000000
41.177609 -871.939185 -244.000000
40.185331 -873.675671 -244.000000
39.193053 -875.412157 -244.000000
38.200775 -877.148643 -244.000000
37.208497 -878.885130 -244.000000
36.216219 -880.621616 -244.000000
35.223942 -882.358102 -244.000000
34.231664 -884.094589 -244.000000
33.239386 -885.831075 -244.000000
32.247108 -887.567561 -244.000000
31.254830 -889.304047 -244.000000
30.262552 -891.040534 -244.000000
29.270274 -892.777020 -244.000000
28.277996 -894.513506 -244.000000
27.285719 -896.249993 -244.000000
26.293441 -897.986479 -244.000000
25.301163 -899.722965 -244.000000
24.308885 -901.459451 -244.000000
23.316607 -903.195938 -244.000000
22.324329 -904.932424 -244.000000
21.332051 -906.668910 -244.000000
20.339773 -908.405397 -244.000000
19.347496 -910.141883 -244.000000
18.355218 -911.878369 -244.000000
17.362940 -913.614855 -244.000000
16.370662 -915.351342 -244.000000
15.378384 -917.087828 -244.000000
14.386106 -918.824314 -244.000000
13.393828 -920.560800 -244.000000
12.401550 -922.297287 -244.000000
11.409273 -924.033773 -244.000000
10.416995 -925.770259 -244.000000
9.424717 -927.506746 -244.000000
8.432439 -929.243232 -244.000000
7.440161 -930.979718 -244.000000
6.447883 -932.716204 -244.000000
5.455605 -934.452691 -244.000000
4.463327 -936.189177 -244.000000
3.471050 -937.925663 -244.000000
2.478772 -939.662150 -244.000000
1.486494 -941.398636 -244.000000
0.494216 -943.135122 -244.000000
-0.498062 -944.871608 -244.000000
-1.490340 -946.608095 -244.000000
-2.482618 -948.344581 -244.000000
-3.474896 -950.081067 -244.000000
-4.467173 -951.817554 -244.000000
-5.459451 -953.554040 -244.000000
-6.451729 -955.290526 -244.000000
-7.444007 -957.027012 -244.000000
-8.436285 -958.763499 -244.000000
-9.428563 -960.499985 -244.000000
-10.420841 -962.236471 -244.000000
-11.413119 -963.972958 -244.000000
-12.405397 -965.709444 -244.000000
-13.397674 -967.445930 -244.000000
-14.389952 -969.182416 -244.000000
-15.382230 -970.918903 -244.000000
-16.374508 -972.655389 -244.000000
-17.366786 -974.391875 -244.000000
-18.359064 -976.128362 -244.000000
-19.351342 -977.864848 -244.000000
-20.343620 -979.601334 -244.000000
-21.335897 -981.337820 -244.000000
-22.328175 -983.074307 -244.000000
-23.320453 -984.810793 -244.000000
-24.312731 -986.547279 -244.000000
-25.305009 -988.283766 -244.000000
-26.297287 -990.020252 -244.000000
-27.289565 -991.756738 -244.000000
-28.281843 -993.493224 -244.000000
-29.274120 -995.229711 -244.000000
-30.266398 -996.966197 -244.000000
-31.258676 -998.702683 -244.000000
-32.250954 -1000.439170 -244.000000
-33.243232 -1002.175656 -244.000000
-34.235510 -1003.912142 -244.000000
-35.227788 -1005.648628 -244.000000
-36.220066 -1007.385115 -244.000000
-37.212343 -1009.121601 -244.000000
-38.204621 -1010.858087 -244.000000
-39.196899 -1012.594574 -244.000000
-40.189177 -1014.331060 -244.000000
-41.181455 -1016.067546 -244.000000
-42.173733 -1017.804032 -244.000000
-43.166011 -1019.540519 -244.000000
-44.158289 -1021.277005 -244.000000
-45.150566 -1023.013491 -244.000000
-46.142844 -1024.749978 -244.000000
-47.135122 -1026.486464 -244.000000
-48.127400 -1028.222950 -244.000000
-49.119678 -1029.959436 -244.000000
-50.111956 -1031.695923 -244.000000
-51.104234 -1033.432409 -244.000000
-52.096512 -1035.168895 -244.000000
-53.088789 -1036.905382 -244.000000
-54.081067 -1038.641868 -244.000000
-55.073345 -1040.378354 -244.000000
-56.065623 -1042.114840 -244.000000
-57.057901 -1043.851327 -244.000000
-58.050179 -1045.587813 -244.000000
-59.042457 -1047.324299 -244.000000
-60.034735 -1049.060786 -244.000000
-61.027012 -1050.797272 -244.000000
-62.019290 -1052.533758 -244.000000
-63.011568 -1054.270244 -244.000000
-64.003846 -1056.006731 -244.000000
-64.996124 -1057.743217 -244.000000
-65.988402 -1059.479703 -244.000000
-66.980680 -1061.216190 -244.000000
-67.972958 -1062.952676 -244.000000
-68.965235 -1064.689162 -244.000000
-69.957513 -1066.425648 -244.000000
-70.949791 -1068.162135 -244.000000
-71.942069 -1069.898621 -244.000000
-72.934347 -1071.635107 -244.000000
-73.926625 -1073.371594 -244.000000
-74.918903 -1075.108080 -244.000000
-75.911181 -1076.844566 -244.000000
-76.903458 -1078.581052 -244.000000
-77.895736 -1080.317539 -244.000000
-78.888014 -1082.054025 -244.000000
-79.880292 -1083.790511 -244.000000
-80.872570 -1085.526998 -244.000000
-81.864848 -1087.263484 -244.000000
-82.857126 -1088.999970 -244.000000
-83.849404 -1090.736456 -244.000000
-84.841682 -1092.472943 -244.000000
-85.833959 -1094.209429 -244.000000
-86.826237 -1095.945915 -244.000000
-87.818515 -1097.682401 -244.000000
-88.810793 -1099.418888 -244.000000
-89.803071 -1101.155374 -244.000000
-90.795349 -1102.891860 -244.000000
-91.787627 -1104.628347 -244.000000
-92.779905 -1106.364833 -244.000000
-93.772182 -1108.101319 -244.000000
-94.764460 -1109.837805 -244.000000
-95.756738 -1111.574292 -244.000000
-96.749016 -1113.310778 -244.000000
-97.741294 -1115.047264 -244.000000
-98.733572 -1116.783751 -244.000000
-99.725850 -1118.520237 -244.000000
-100.718128 -1120.256723 -244.000000
-101.710405 -1121.993209 -244.000000
-102.702683 -1123.729696 -244.000000
-103.694961 -1125.466182 -244.000000
-104.687239 -1127.202668 -244.000000
-105.679517 -1128.939155 -244.000000
-106.671795 -1130.675641 -244.000000
-107.664073 -1132.412127 -244.000000
-108.656351 -1134.148613 -244.000000
-109.648628 -1135.885100 -244.000000
-110.640906 -1137.621586 -244.000000
-111.633184 -1139.358072 -244.000000
-112.625462 -1141.094559 -244.000000
-113.617740 -1142.831045 -244.000000
-114.610018 -1144.567531 -244.000000
-115.602296 -1146.304017 -244.000000
-116.594574 -1148.040504 -244.000000
-117.586851 -1149.776990 -244.000000
-118.579129 -1151.513476 -244.000000
-119.571407 -1153.249963 -244.000000
-120.563685 -1154.986449 -244.000000
-121.555963 -1156.722935 -244.000000
-122.548241 -1158.459421 -244.000000
-123.540519 -1160.195908 -244.000000
-124.532797 -1161.932394 -244.000000
-125.525074 -1163.668880 -244.000000
-126.517352 -1165.405367 -244.000000
-127.509630 -1167.141853 -244.000000
-128.501908 -1168.878339 -244.000000
-129.494186 -1170.614825 -244.000000
-130.486464 -1172.351312 -244.000000
-131.478742 -1174.087798 -244.000000
-132.471020 -1175.824284 -244.000000
-133.463297 -1177.560771 -244.000000
-134.455575 -1179.297257 -244.000000
-135.447853 -1181.033743 -244.000000
-136.440131 -1182.770229 -244.000000
-137.432409 -1184.506716 -244.000000
-138.424687 -1186.243202 -244.000000
-139.416965 -1187.979688 -244.000000
-140.409243 -1189.716175 -244.000000
-141.401520 -1191.452661 -244.000000
-142.393798 -1193.189147 -244.000000
-143.386076 -1194.925633 -244.000000
-144.378354 -1196.662120 -244.000000
-145.370632 -1198.398606 -244.000000
-146.362910 -1200.135092 -244.000000
-147.355188 -1201.871579 -244.000000
-148.347466 -1203.608065 -244.000000
-149.339743 -1205.344551 -244.000000
-150.332021 -1207.081037 -244.000000
-151.324299 -1208.817524 -244.000000
-152.316577 -1210.554010 -244.000000
-153.308855 -1212.290496 -244.000000
-154.301133 -1214.026983 -244.000000
-155.293411 -1215.763469 -244.000000
-156.285689 -1217.499955 -244.000000
-157.277967 -1219.236441 -244.000000
-158.270244 -1220.972928 -244.000000
-159.262522 -1222.709414 -244.000000
-160.254800 -1224.445900 -244.000000
-161.247078 -1226.182387 -244.000000
-162.239356 -1227.918873 -244.000000
-163.231634 -1229.655359 -244.000000
-164.223912 -1231.391845 -244.000000
-165.216190 -1233.128332 -244.000000
-166.208467 -1234.864818 -244.000000
-167.200745 -1236.601304 -244.000000
-168.193023 -1238.337791 -244.000000
-169.185301 -1240.074277 -244.000000
-170.177579 -1241.810763 -244.000000
-171.169857 -1243.547249 -244.000000
-172.162135 -1245.283736 -244.000000
-173.154413 -1247.020222 -244.000000
-174.146690 -1248.756708 -244.000000
-175.138968 -1250.493195 -244.000000
-176.131246 -1252.229681 -244.000000
-177.123524 -1253.966167 -244.000000
-178.115802 -1255.702653 -244.000000
-179.108080 -1257.439140 -244.000000
-180.100358 -1259.175626 -244.000000
-181.092636 -1260.912112 -244.000000
-182.084913 -1262.648598 -244.000000
-183.077191 -1264.385085 -244.000000
-184.069469 -1266.121571 -244.000000
-185.061747 -1267.858057 -244.000000
-186.054025 -1269.594544 -244.000000
-187.046303 -1271.331030 -244.000000
-188.038581 -1273.067516 -244.000000
-189.030859 -1274.804002 -244.000000
-190.023136 -1276.540489 -244.000000
-192.000000 -1280.000000 -244.000000
-192.000000 -1280.000000 -244.000000
-192.051493 -1278.077590 -244.549260
-192.102986 -1276.155179 -245.098520
-192.154479 -1274.232769 -245.647780
-192.205973 -1272.310358 -246.197040
-192.257466 -1270.387948 -246.746301
-192.308959 -1268.465538 -247.295561
-192.360452 -1266.543127 -247.844821
-192.411945 -1264.620717 -248.394081
-192.463438 -1262.698306 -248.943341
-192.514931 -1260.775896 -249.492601
-192.566424 -1258.853486 -250.041861
-192.617918 -1256.931075 -250.591121
-192.669411 -1255.008665 -251.140382
-192.720904 -1253.086254 -251.689642
-192.772397 -1251.163844 -252.238902
-192.823890 -1249.241433 -252.788162
-192.875383 -1247.319023 -253.337422
-192.926876 -1245.396613 -253.886682
-192.978370 -1243.474202 -254.435942
-193.029863 -1241.551792 -254.985202
-193.081356 -1239.629381 -255.534462
-193.132849 -1237.706971 -256.083723
-193.184342 -1235.784561 -256.632983
-193.235835 -1233.862150 -257.182243
-193.287328 -1231.939740 -257.731503
-193.338822 -1230.017329 -258.280763
-193.390315 -1228.094919 -258.830023
-193.441808 -1226.172509 -259.379283
-193.493301 -1224.250098 -259.928543
-193.544794 -1222.327688 -260.477804
-193.596287 -1220.405277 -261.027064
-193.647780 -1218.482867 -261.576324
-193.699273 -1216.560457 -262.125584
-193.750767 -1214.638046 -262.674844
-193.802260 -1212.715636 -263.224104
-193.853753 -1210.793225 -263.773364
-193.905246 -1208.870815 -264.322624
-193.956739 -1206.948404 -264.871884
-194.008232 -1205.025994 -265.421145
-194.059725 -1203.103584 -265.970405
-194.111219 -1201.181173 -266.519665
-194.162712 -1199.258763 -267.068925
-194.214205 -1197.336352 -267.618185
-194.265698 -1195.413942 -268.167445
-194.317191 -1193.491532 -268.716705
-194.368684 -1191.569121 -269.265965
-194.420177 -1189.646711 -269.815225
-194.471671 -1187.724300 -270.364486
-194.523164 -1185.801890 -270.913746
-194.574657 -1183.879480 -271.463006
-194.626150 -1181.957069 -272.012266
-194.677643 -1180.034659 -272.561526
-194.729136 -1178.112248 -273.110786
-194.780629 -1176.189838 -273.660046
-194.832122 -1174.267428 -274.209306
-194.883616 -1172.345017 -274.758567
-194.935109 -1170.422607 -275.307827
-194.986602 -1168.500196 -275.857087
-195.038095 -1166.577786 -276.406347
-195.089588 -1164.655375 -276.955607
-195.141081 -1162.732965 -277.504867
-195.192574 -1160.810555 -278.054127
-195.244068 -1158.888144 -278.603387
-195.295561 -1156.965734 -279.152647
-195.347054 -1155.043323 -279.701908
-195.398547 -1153.120913 -280.251168
-195.450040 -1151.198503 -280.800428
-195.501533 -1149.276092 -281.349688
-195.553026 -1147.353682 -281.898948
-195.604520 -1145.431271 -282.448208
-195.656013 -1143.508861 -282.997468
-195.707506 -1141.586451 -283.546728
-195.758999 -1139.664040 -284.095989
-195.810492 -1137.741630 -284.645249
-195.861985 -1135.819219 -285.194509
-195.913478 -1133.896809 -285.743769
-195.964971 -1131.974399 -286.293029
-196.016465 -1130.051988 -286.842289
-196.067958 -1128.129578 -287.391549
-196.119451 -1126.207167 -287.940809
-196.170944 -1124.284757 -288.490069
-196.222437 -1122.362346 -289.039330
-196.273930 -1120.439936 -289.588590
-196.325423 -1118.517526 -290.137850
-196.376917 -1116.595115 -290.687110
-196.428410 -1114.672705 -291.236370
-196.479903 -1112.750294 -291.785630
-196.531396 -1110.827884 -292.334890
-196.582889 -1108.905474 -292.884150
-196.634382 -1106.983063 -293.433411
-196.685875 -1105.060653 -293.982671
-196.737369 -1103.138242 -294.531931
-196.788862 -1101.215832 -295.081191
-196.840355 -1099.293422 -295.630451
-196.891848 -1097.371011 -296.179711
-196.943341 -1095.448601 -296.728971
-196.994834 -1093.526190 -297.278231
-197.046327 -1091.603780 -297.827491
-197.097820 -1089.681370 -298.376752
-197.149314 -1087.758959 -298.926012
-197.200807 -1085.836549 -299.475272
-197.252300 -1083.914138 -300.024532
-197.303793 -1081.991728 -300.573792
-197.355286 -1080.069317 -301.123052
-197.406779 -1078.146907 -301.672312
-197.458272 -1076.224497 -302.221572
-197.509766 -1074.302086 -302.770833
-197.561259 -1072.379676 -303.320093
-197.612752 -1070.457265 -303.869353
-197.664245 -1068.534855 -304.418613
-197.715738 -1066.612445 -304.967873
-197.767231 -1064.690034 -305.517133
-197.818724 -1062.767624 -306.066393
-197.870217 -1060.845213 -306.615653
-197.921711 -1058.922803 -307.164913
-197.973204 -1057.000393 -307.714174
-198.024697 -1055.077982 -308.263434
-198.076190 -1053.155572 -308.812694
-198.127683 -1051.233161 -309.361954
-198.179176 -1049.310751 -309.911214
-198.230669 -1047.388341 -310.460474
-198.282163 -1045.465930 -311.009734
-198.333656 -1043.543520 -311.558994
-198.385149 -1041.621109 -312.108254
-198.436642 -1039.698699 -312.657515
-198.488135 -1037.776288 -313.206775
-198.539628 -1035.853878 -313.756035
-198.591121 -1033.931468 -314.305295
-198.642615 -1032.009057 -314.854555
-198.694108 -1030.086647 -315.403815
-198.745601 -1028.164236 -315.953075
-198.797094 -1026.241826 -316.502335
-198.848587 -1024.319416 -317.051596
-198.900080 -1022.397005 -317.600856
-198.951573 -1020.474595 -318.150116
-199.003066 -1018.552184 -318.699376
-199.054560 -1016.629774 -319.248636
-199.106053 -1014.707364 -319.797896
-199.157546 -1012.784953 -320.347156
-199.209039 -1010.862543 -320.896416
-199.260532 -1008.940132 -321.445676
-199.312025 -1007.017722 -321.994937
-199.363518 -1005.095312 -322.544197
-199.415012 -1003.172901 -323.093457
-199.466505 -1001.250491 -323.642717
-199.517998 -999.328080 -324.191977
-199.569491 -997.405670 -324.741237
-199.620984 -995.483259 -325.290497
-199.672477 -993.560849 -325.839757
-199.723970 -991.638439 -326.389018
-199.775464 -989.716028 -326.938278
-199.826957 -987.793618 -327.487538
-199.878450 -985.871207 -328.036798
-199.929943 -983.948797 -328.586058
-199.981436 -982.026387 -329.135318
-200.032929 -980.103976 -329.684578
-200.084422 -978.181566 -330.233838
-200.135915 -976.259155 -330.783098
-200.187409 -974.336745 -331.332359
-200.238902 -972.414335 -331.881619
-200.290395 -970.491924 -332.430879
-200.341888 -968.569514 -332.980139
-200.393381 -966.647103 -333.529399
-200.444874 -964.724693 -334.078659
-200.496367 -962.802283 -334.627919
-200.547861 -960.879872 -335.177179
-200.599354 -958.957462 -335.726440
-200.650847 -957.035051 -336.275700
-200.702340 -955.112641 -336.824960
-200.753833 -953.190230 -337.374220
-200.805326 -951.267820 -337.923480
-200.856819 -949.345410 -338.472740
-200.908313 -947.422999 -339.022000
-200.959806 -945.500589 -339.571260
-201.011299 -943.578178 -340.120520
-201.062792 -941.655768 -340.669781
-201.114285 -939.733358 -341.219041
-201.165778 -937.810947 -341.768301
-201.217271 -935.888537 -342.317561
-201.268764 -933.966126 -342.866821
-201.320258 -932.043716 -343.416081
-201.371751 -930.121306 -343.965341
-201.423244 -928.198895 -344.514601
-201.474737 -926.276485 -345.063862
-201.526230 -924.354074 -345.613122
-201.577723 -922.431664 -346.162382
-201.629216 -920.509254 -346.711642
-201.680710 -918.586843 -347.260902
-201.732203 -916.664433 -347.810162
-201.783696 -914.742022 -348.359422
-201.835189 -912.819612 -348.908682
-201.886682 -910.897201 -349.457942
-201.938175 -908.974791 -350.007203
-201.989668 -907.052381 -350.556463
-202.041162 -905.129970 -351.105723
-202.092655 -903.207560 -351.654983
-202.144148 -901.285149 -352.204243
-202.195641 -899.362739 -352.753503
-202.247134 -897.440329 -353.302763
-202.298627 -895.517918 -353.852023
-202.350120 -893.595508 -354.401283
-202.401613 -891.673097 -354.950544
-202.453107 -889.750687 -355.499804
-202.504600 -887.828277 -356.049064
-202.556093 -885.905866 -356.598324
-202.607586 -883.983456 -357.147584
-202.659079 -882.061045 -357.696844
-202.710572 -880.138635 -358.246104
-202.762065 -878.216225 -358.795364
-202.813559 -876.293814 -359.344625
-202.865052 -874.371404 -359.893885
-202.916545 -872.448993 -360.443145
-202.968038 -870.526583 -360.992405
-203.019531 -868.604172 -361.541665
-203.071024 -866.681762 -362.090925
-203.122517 -864.759352 -362.640185
-203.174011 -862.836941 -363.189445
-203.225504 -860.914531 -363.738705
-203.276997 -858.992120 -364.287966
-203.328490 -857.069710 -364.837226
-203.379983 -855.147300 -365.386486
-203.431476 -853.224889 -365.935746
-203.482969 -851.302479 -366.485006
-203.534462 -849.380068 -367.034266
-203.585956 -847.457658 -367.583526
-203.637449 -845.535248 -368.132786
-203.688942 -843.612837 -368.682047
-203.740435 -841.690427 -369.231307
-203.791928 -839.768016 -369.780567
-203.843421 -837.845606 -370.329827
-203.894914 -835.923196 -370.879087
-203.946408 -834.000785 -371.428347
-204.000000 -832.000000 -372.000000
-204.000000 -832.000000 -372.000000
-204.000000 -830.201264 -372.874385
-204.000000 -828.402529 -373.748771
-204.000000 -826.603793 -374.623156
-204.000000 -824.805057 -375.497542
-204.000000 -823.006321 -376.371927
-204.000000 -821.207586 -377.246312
-204.000000 -819.408850 -378.120698
-204.000000 -817.610114 -378.995083
-204.000000 -815.811379 -379.869469
-204.000000 -814.012643 -380.743854
-204.000000 -812.213907 -381.618240
-204.000000 -810.415172 -382.492625
-204.000000 -808.616436 -383.367010
-204.000000 -806.817700 -384.241396
-204.000000 -805.018964 -385.115781
-204.000000 -803.220229 -385.990167
-204.000000 -801.421493 -386.864552
-204.000000 -799.622757 -387.738937
-204.000000 -797.824022 -388.613323
-204.000000 -796.025286 -389.487708
-204.000000 -794.226550 -390.362094
-204.000000 -792.427814 -391.236479
-204.000000 -790.629079 -392.110865
-204.000000 -788.830343 -392.985250
-204.000000 -787.031607 -393.859635
-204.000000 -785.232872 -394.734021
-204.000000 -783.434136 -395.608406
-204.000000 -781.635400 -396.482792
-204.000000 -779.836664 -397.357177
-204.000000 -778.037929 -398.231562
-204.000000 -776.239193 -399.105948
-204.000000 -774.440457 -399.980333
-204.000000 -772.641722 -400.854719
-204.000000 -770.842986 -401.729104
-204.000000 -769.044250 -402.603489
-204.000000 -767.245515 -403.477875
-204.000000 -765.446779 -404.352260
-204.000000 -763.648043 -405.226646
-204.000000 -761.849307 -406.101031
-204.000000 -760.050572 -406.975417
-204.000000 -758.251836 -407.849802
-204.000000 -756.453100 -408.724187
-204.000000 -754.654365 -409.598573
-204.000000 -752.855629 -410.472958
-204.000000 -751.056893 -411.347344
-204.000000 -749.258157 -412.221729
-204.000000 -747.459422 -413.096114
-204.000000 -745.660686 -413.970500
-204.000000 -743.861950 -414.844885
-204.000000 -742.063215 -415.719271
-204.000000 -740.264479 -416.593656
-204.000000 -738.465743 -417.468042
-204.000000 -736.667007 -418.342427
-204.000000 -734.868272 -419.216812
-204.000000 -733.069536 -420.091198
-204.000000 -731.270800 -420.965583
-204.000000 -729.472065 -421.839969
-204.000000 -727.673329 -422.714354
-204.000000 -725.874593 -423.588739
-204.000000 -724.075858 -424.463125
-204.000000 -722.277122 -425.337510
-204.000000 -720.478386 -426.211896
-204.000000 -718.679650 -427.086281
-204.000000 -716.880915 -427.960666
-204.000000 -715.082179 -428.835052
-204.000000 -713.283443 -429.709437
-204.000000 -711.484708 -430.583823
-204.000000 -709.685972 -431.458208
-204.000000 -707.887236 -432.332594
-204.000000 -706.088500 -433.206979
-204.000000 -704.289765 -434.081364
-204.000000 -702.491029 -434.955750
-204.000000 -700.692293 -435.830135
-204.000000 -698.893558 -436.704521
-204.000000 -697.094822 -437.578906
-204.000000 -695.296086 -438.453291
-204.000000 -693.497350 -439.327677
-204.000000 -691.698615 -440.202062
-204.000000 -689.899879 -441.076448
-204.000000 -688.101143 -441.950833
-204.000000 -686.302408 -442.825219
-204.000000 -684.503672 -443.699604
-204.000000 -682.704936 -444.573989
-204.000000 -680.906201 -445.448375
-204.000000 -679.107465 -446.322760
-204.000000 -677.308729 -447.197146
-204.000000 -675.509993 -448.071531
-204.000000 -673.711258 -448.945916
-204.000000 -671.912522 -449.820302
-204.000000 -670.113786 -450.694687
-204.000000 -668.315051 -451.569073
-204.000000 -666.516315 -452.443458
-204.000000 -664.717579 -453.317843
-204.000000 -662.918843 -454.192229
-204.000000 -661.120108 -455.066614
-204.000000 -659.321372 -455.941000
-204.000000 -657.522636 -456.815385
-204.000000 -655.723901 -457.689771
-204.000000 -653.925165 -458.564156
-204.000000 -652.126429 -459.438541
-204.000000 -650.327693 -460.312927
-204.000000 -648.528958 -461.187312
-204.000000 -646.730222 -462.061698
-204.000000 -644.931486 -462.936083
-204.000000 -643.132751 -463.810468
-204.000000 -641.334015 -464.684854
-204.000000 -639.535279 -465.559239
-204.000000 -637.736544 -466.433625
-204.000000 -635.937808 -467.308010
-204.000000 -634.139072 -468.182396
-204.000000 -632.340336 -469.056781
-204.000000 -630.541601 -469.931166
-204.000000 -628.742865 -470.805552
-204.000000 -626.944129 -471.679937
-204.000000 -625.145394 -472.554323
-204.000000 -623.346658 -473.428708
-204.000000 -621.547922 -474.303093
-204.000000 -619.749186 -475.177479
-204.000000 -617.950451 -476.051864
-204.000000 -616.151715 -476.926250
-204.000000 -614.352979 -477.800635
-204.000000 -612.554244 -478.675020
-204.000000 -610.755508 -479.549406
-204.000000 -608.956772 -480.423791
-204.000000 -607.158036 -481.298177
-204.000000 -605.359301 -482.172562
-204.000000 -603.560565 -483.046948
-204.000000 -601.761829 -483.921333
-204.000000 -599.963094 -484.795718
-204.000000 -598.164358 -485.670104
-204.000000 -596.365622 -486.544489
-204.000000 -594.566887 -487.418875
-204.000000 -592.768151 -488.293260
-204.000000 -590.969415 -489.167645
-204.000000 -589.170679 -490.042031
-204.000000 -587.371944 -490.916416
-204.000000 -585.573208 -491.790802
-204.000000 -583.774472 -492.665187
-204.000000 -581.975737 -493.539573
-204.000000 -580.177001 -494.413958
-204.000000 -578.378265 -495.288343
-204.000000 -576.579529 -496.162729
-204.000000 -574.780794 -497.037114
-204.000000 -572.982058 -497.911500
-204.000000 -571.183322 -498.785885
-204.000000 -569.384587 -499.660270
-204.000000 -567.585851 -500.534656
-204.000000 -565.787115 -501.409041
-204.000000 -563.988379 -502.283427
-204.000000 -562.189644 -503.157812
-204.000000 -560.390908 -504.032197
-204.000000 -558.592172 -504.906583
-204.000000 -556.793437 -505.780968
-204.000000 -554.994701 -506.655354
-204.000000 -553.195965 -507.529739
-204.000000 -551.397230 -508.404125
-204.000000 -549.598494 -509.278510
-204.000000 -547.799758 -510.152895
-204.000000 -546.001022 -511.027281
-204.000000 -544.000000 -512.000000
-204.000000 -544.000000 -512.000000
-204.000000 -544.000000 -514.000000
-204.000000 -544.000000 -516.000000
-204.000000 -544.000000 -518.000000
-204.000000 -544.000000 -520.000000
-204.000000 -544.000000 -522.000000
-204.000000 -544.000000 -524.000000
-204.000000 -544.000000 -526.000000
-204.000000 -544.000000 -528.000000
-204.000000 -544.000000 -530.000000
-204.000000 -544.000000 -532.000000
-204.000000 -544.000000 -534.000000
-204.000000 -544.000000 -536.000000
-204.000000 -544.000000 -538.000000
-204.000000 -544.000000 -540.000000
-204.000000 -544.000000 -542.000000
-204.000000 -544.000000 -544.000000
-204.000000 -544.000000 -546.000000
-204.000000 -544.000000 -548.000000
-204.000000 -544.000000 -550.000000
-204.000000 -544.000000 -552.000000
-204.000000 -544.000000 -554.000000
-204.000000 -544.000000 -556.000000
-204.000000 -544.000000 -558.000000
-204.000000 -544.000000 -560.000000
-204.000000 -544.000000 -562.000000
-204.000000 -544.000000 -564.000000
-204.000000 -544.000000 -566.000000
-204.000000 -544.000000 -568.000000
-204.000000 -544.000000 -570.000000
-204.000000 -544.000000 -572.000000
-204.000000 -544.000000 -576.000000
-204.000000 -544.000000 -576.000000
-202.671916 -545.494094 -576.062254
-201.343832 -546.988189 -576.124508
-200.015749 -548.482283 -576.186762
-198.687665 -549.976377 -576.249016
-197.359581 -551.470472 -576.311270
-196.031497 -552.964566 -576.373524
-194.703413 -554.458660 -576.435778
-193.375329 -555.952754 -576.498031
-192.047246 -557.446849 -576.560285
-190.719162 -558.940943 -576.622539
-189.391078 -560.435037 -576.684793
-188.062994 -561.929132 -576.747047
-186.734910 -563.423226 -576.809301
-185.406826 -564.917320 -576.871555
-184.078743 -566.411415 -576.933809
-182.750659 -567.905509 -576.996063
-181.422575 -569.399603 -577.058317
-180.094491 -570.893698 -577.120571
-178.766407 -572.387792 -577.182825
-177.438323 -573.881886 -577.245079
-176.110240 -575.375980 -577.307333
-174.782156 -576.870075 -577.369586
-173.454072 -578.364169 -577.431840
-172.125988 -579.858263 -577.494094
-170.797904 -581.352358 -577.556348
-169.469820 -582.846452 -577.618602
-168.141737 -584.340546 -577.680856
-166.813653 -585.834641 -577.743110
-165.485569 -587.328735 -577.805364
-164.157485 -588.822829 -577.867618
-162.829401 -590.316923 -577.929872
-161.501318 -591.811018 -577.992126
-160.173234 -593.305112 -578.054380
-158.845150 -594.799206 -578.116634
-157.517066 -596.293301 -578.178888
-156.188982 -597.787395 -578.241141
-154.860898 -599.281489 -578.303395
-153.532815 -600.775584 -578.365649
-152.204731 -602.269678 -578.427903
-150.876647 -603.763772 -578.490157
-149.548563 -605.257867 -578.552411
-148.220479 -606.751961 -578.614665
-146.892395 -608.246055 -578.676919
-145.564312 -609.740149 -578.739173
-144.236228 -611.234244 -578.801427
-142.908144 -612.728338 -578.863681
-141.580060 -614.222432 -578.925935
-140.251976 -615.716527 -578.988189
-138.923892 -617.210621 -579.050443
-137.595809 -618.704715 -579.112696
-136.267725 -620.198810 -579.174950
-134.939641 -621.692904 -579.237204
-133.611557 -623.186998 -579.299458
-132.283473 -624.681093 -579.361712
-130.955389 -626.175187 -579.423966
-129.627306 -627.669281 -579.486220
-128.299222 -629.163375 -579.548474
-126.971138 -630.657470 -579.610728
-125.643054 -632.151564 -579.672982
-124.314970 -633.645658 -579.735236
-122.986887 -635.139753 -579.797490
-121.658803 -636.633847 -579.859744
-120.330719 -638.127941 -579.921998
-119.002635 -639.622036 -579.984251
-117.674551 -641.116130 -580.046505
-116.346467 -642.610224 -580.108759
-115.018384 -644.104319 -580.171013
-113.690300 -645.598413 -580.233267
-112.362216 -647.092507 -580.295521
-111.034132 -648.586601 -580.357775
-109.706048 -650.080696 -580.420029
-108.377964 -651.574790 -580.482283
-107.049881 -653.068884 -580.544537
-105.721797 -654.562979 -580.606791
-104.393713 -656.057073 -580.669045
-103.065629 -657.551167 -580.731299
-101.737545 -659.045262 -580.793553
-100.409461 -660.539356 -580.855806
-99.081378 -662.033450 -580.918060
-97.753294 -663.527544 -580.980314
-96.425210 -665.021639 -581.042568
-95.097126 -666.515733 -581.104822
-93.769042 -668.009827 -581.167076
-92.440958 -669.503922 -581.229330
-91.112875 -670.998016 -581.291584
-89.784791 -672.492110 -581.353838
-88.456707 -673.986205 -581.416092
-87.128623 -675.480299 -581.478346
-85.800539 -676.974393 -581.540600
-84.472456 -678.468488 -581.602854
-83.144372 -679.962582 -581.665108
-81.816288 -681.456676 -581.727362
-80.488204 -682.950770 -581.789615
-79.160120 -684.444865 -581.851869
-77.832036 -685.938959 -581.914123
-76.503953 -687.433053 -581.976377
-75.175869 -688.927148 -582.038631
-73.847785 -690.421242 -582.100885
-72.519701 -691.915336 -582.163139
-71.191617 -693.409431 -582.225393
-69.863533 -694.903525 -582.287647
-68.535450 -696.397619 -582.349901
-67.207366 -697.891714 -582.412155
-65.879282 -699.385808 -582.474409
-64.551198 -700.879902 -582.536663
-63.223114 -702.373996 -582.598917
-61.895030 -703.868091 -582.661170
-60.566947 -705.362185 -582.723424
-59.238863 -706.856279 -582.785678
-57.910779 -708.350374 -582.847932
-56.582695 -709.844468 -582.910186
-55.254611 -711.338562 -582.972440
-53.926527 -712.832657 -583.034694
-52.598444 -714.326751 -583.096948
-51.270360 -715.820845 -583.159202
-49.942276 -717.314939 -583.221456
-48.614192 -718.809034 -583.283710
-47.286108 -720.303128 -583.345964
-45.958025 -721.797222 -583.408218
-44.629941 -723.291317 -583.470472
-43.301857 -724.785411 -583.532725
-41.973773 -726.279505 -583.594979
-40.645689 -727.773600 -583.657233
-39.317605 -729.267694 -583.719487
-37.989522 -730.761788 -583.781741
-36.661438 -732.255883 -583.843995
-35.333354 -733.749977 -583.906249
-34.005270 -735.244071 -583.968503
-32.677186 -736.738165 -584.030757
-31.349102 -738.232260 -584.093011
-30.021019 -739.726354 -584.155265
-28.692935 -741.220448 -584.217519
-27.364851 -742.714543 -584.279773
-26.036767 -744.208637 -584.342027
-24.708683 -745.702731 -584.404280
-23.380599 -747.196826 -584.466534
-22.052516 -748.690920 -584.528788
-20.724432 -750.185014 -584.591042
-19.396348 -751.679109 -584.653296
-18.068264 -753.173203 -584.715550
-16.740180 -754.667297 -584.777804
-15.412096 -756.161391 -584.840058
-14.084013 -757.655486 -584.902312
-12.755929 -759.149580 -584.964566
-11.427845 -760.643674 -585.026820
-10.099761 -762.137769 -585.089074
-8.771677 -763.631863 -585.151328
-7.443594 -765.125957 -585.213582
-6.115510 -766.620052 -585.275835
-4.787426 -768.114146 -585.338089
-3.459342 -769.608240 -585.400343
-2.131258 -771.102335 -585.462597
-0.803174 -772.596429 -585.524851
0.524909 -774.090523 -585.587105
1.852993 -775.584617 -585.649359
3.181077 -777.078712 -585.711613
4.509161 -778.572806 -585.773867
5.837245 -780.066900 -585.836121
7.165329 -781.560995 -585.898375
8.493412 -783.055089 -585.960629
9.821496 -784.549183 -586.022883
11.149580 -786.043278 -586.085137
12.477664 -787.537372 -586.147390
13.805748 -789.031466 -586.209644
15.133832 -790.525560 -586.271898
16.461915 -792.019655 -586.334152
17.789999 -793.513749 -586.396406
19.118083 -795.007843 -586.458660
20.446167 -796.501938 -586.520914
21.774251 -797.996032 -586.583168
23.102335 -799.490126 -586.645422
24.430418 -800.984221 -586.707676
25.758502 -802.478315 -586.769930
27.086586 -803.972409 -586.832184
28.414670 -805.466504 -586.894438
29.742754 -806.960598 -586.956692
31.070837 -808.454692 -587.018946
32.398921 -809.948786 -587.081199
33.727005 -811.442881 -587.143453
35.055089 -812.936975 -587.205707
36.383173 -814.431069 -587.267961
37.711257 -815.925164 -587.330215
39.039340 -817.419258 -587.392469
40.367424 -818.913352 -587.454723
41.695508 -820.407447 -587.516977
43.023592 -821.901541 -587.579231
44.351676 -823.395635 -587.641485
45.679760 -824.889730 -587.703739
47.007843 -826.383824 -587.765993
48.335927 -827.877918 -587.828247
49.664011 -829.372012 -587.890501
52.000000 -832.000000 -588.000000
52.000000 -832.000000 -588.000000
51.028483 -833.747593 -587.954460
50.056965 -835.495185 -587.908920
49.085448 -837.242778 -587.863380
48.113931 -838.990371 -587.817841
47.142413 -840.737963 -587.772301
46.170896 -842.485556 -587.726761
45.199379 -844.233149 -587.681221
44.227861 -845.980742 -587.635681
43.256344 -847.728334 -587.590141
42.284827 -849.475927 -587.544601
41.313309 -851.223520 -587.499061
40.341792 -852.971112 -587.453522
39.370275 -854.718705 -587.407982
38.398757 -856.466298 -587.362442
37.427240 -858.213890 -587.316902
36.455723 -859.961483 -587.271362
35.484205 -861.709076 -587.225822
34.512688 -863.456668 -587.180282
33.541171 -865.204261 -587.134742
32.569653 -866.951854 -587.089203
31.598136 -868.699446 -587.043663
30.626619 -870.447039 -586.998123
29.655102 -872.194632 -586.952583
28.683584 -873.942225 -586.907043
27.712067 -875.689817 -586.861503
26.740550 -877.437410 -586.815963
25.769032 -879.185003 -586.770423
24.797515 -880.932595 -586.724884
23.825998 -882.680188 -586.679344
22.854480 -884.427781 -586.633804
21.882963 -886.175373 -586.588264
20.911446 -887.922966 -586.542724
19.939928 -889.670559 -586.497184
18.968411 -891.418151 -586.451644
17.996894 -893.165744 -586.406104
17.025376 -894.913337 -586.360565
16.053859 -896.660929 -586.315025
15.082342 -898.408522 -586.269485
14.110824 -900.156115 -586.223945
13.139307 -901.903708 -586.178405
12.167790 -903.651300 -586.132865
11.196272 -905.398893 -586.087325
10.224755 -907.146486 -586.041785
9.253238 -908.894078 -585.996246
8.281720 -910.641671 -585.950706
7.310203 -912.389264 -585.905166
6.338686 -914.136856 -585.859626
5.367168 -915.884449 -585.814086
4.395651 -917.632042 -585.768546
3.424134 -919.379634 -585.723006
2.452616 -921.127227 -585.677466
1.481099 -922.874820 -585.631927
0.509582 -924.622413 -585.586387
-0.461936 -926.370005 -585.540847
-1.433453 -928.117598 -585.495307
-2.404970 -929.865191 -585.449767
-3.376488 -931.612783 -585.404227
-4.348005 -933.360376 -585.358687
-5.319522 -935.107969 -585.313147
-6.291040 -936.855561 -585.267608
-7.262557 -938.603154 -585.222068
-8.234074 -940.350747 -585.176528
-9.205592 -942.098339 -585.130988
-10.177109 -943.845932 -585.085448
-11.148626 -945.593525 -585.039908
-12.120143 -947.341117 -584.994368
-13.091661 -949.088710 -584.948828
-14.063178 -950.836303 -584.903289
-15.034695 -952.583896 -584.857749
-16.006213 -954.331488 -584.812209
-16.977730 -956.079081 -584.766669
-17.949247 -957.826674 -584.721129
-18.920765 -959.574266 -584.675589
-19.892282 -961.321859 -584.630049
-20.863799 -963.069452 -584.584509
-21.835317 -964.817044 -584.538970
-22.806834 -966.564637 -584.493430
-23.778351 -968.312230 -584.447890
-24.749869 -970.059822 -584.402350
-25.721386 -971.807415 -584.356810
-26.692903 -973.555008 -584.311270
-27.664421 -975.302600 -584.265730
-28.635938 -977.050193 -584.220190
-29.607455 -978.797786 -584.174651
-30.578973 -980.545379 -584.129111
-31.550490 -982.292971 -584.083571
-32.522007 -984.040564 -584.038031
-33.493525 -985.788157 -583.992491
-34.465042 -987.535749 -583.946951
-35.436559 -989.283342 -583.901411
-36.408077 -991.030935 -583.855871
-37.379594 -992.778527 -583.810332
-38.351111 -994.526120 -583.764792
-39.322629 -996.273713 -583.719252
-40.294146 -998.021305 -583.673712
-41.265663 -999.768898 -583.628172
-42.237181 -1001.516491 -583.582632
-43.208698 -1003.264084 -583.537092
-44.180215 -1005.011676 -583.491552
-45.151733 -1006.759269 -583.446013
-46.123250 -1008.506862 -583.400473
-47.094767 -1010.254454 -583.354933
-48.066285 -1012.002047 -583.309393
-49.037802 -1013.749640 -583.263853
-50.009319 -1015.497232 -583.218313
-50.980836 -1017.244825 -583.172773
-51.952354 -1018.992418 -583.127233
-52.923871 -1020.740010 -583.081694
-53.895388 -1022.487603 -583.036154
-54.866906 -1024.235196 -582.990614
-55.838423 -1025.982788 -582.945074
-56.809940 -1027.730381 -582.899534
-57.781458 -1029.477974 -582.853994
-58.752975 -1031.225567 -582.808454
-59.724492 -1032.973159 -582.762914
-60.696010 -1034.720752 -582.717375
-61.667527 -1036.468345 -582.671835
-62.639044 -1038.215937 -582.626295
-63.610562 -1039.963530 -582.580755
-64.582079 -1041.711123 -582.535215
-65.553596 -1043.458715 -582.489675
-66.525114 -1045.206308 -582.444135
-67.496631 -1046.953901 -582.398595
-68.468148 -1048.701493 -582.353056
-69.439666 -1050.449086 -582.307516
-70.411183 -1052.196679 -582.261976
-71.382700 -1053.944271 -582.216436
-72.354218 -1055.691864 -582.170896
-73.325735 -1057.439457 -582.125356
-74.297252 -1059.187050 -582.079816
-75.268770 -1060.934642 -582.034276
-76.240287 -1062.682235 -581.988737
-77.211804 -1064.429828 -581.943197
-78.183322 -1066.177420 -581.897657
-79.154839 -1067.925013 -581.852117
-80.126356 -1069.672606 -581.806577
-81.097874 -1071.420198 -581.761037
-82.069391 -1073.167791 -581.715497
-83.040908 -1074.915384 -581.669957
-84.012426 -1076.662976 -581.624418
-84.983943 -1078.410569 -581.578878
-85.955460 -1080.158162 -581.533338
-86.926978 -1081.905755 -581.487798
-87.898495 -1083.653347 -581.442258
-88.870012 -1085.400940 -581.396718
-89.841530 -1087.148533 -581.351178
-90.813047 -1088.896125 -581.305638
-91.784564 -1090.643718 -581.260099
-92.756081 -1092.391311 -581.214559
-93.727599 -1094.138903 -581.169019
-94.699116 -1095.886496 -581.123479
-95.670633 -1097.634089 -581.077939
-96.642151 -1099.381681 -581.032399
-97.613668 -1101.129274 -580.986859
-98.585185 -1102.876867 -580.941319
-99.556703 -1104.624459 -580.895780
-100.528220 -1106.372052 -580.850240
-101.499737 -1108.119645 -580.804700
-102.471255 -1109.867238 -580.759160
-103.442772 -1111.614830 -580.713620
-104.414289 -1113.362423 -580.668080
-105.385807 -1115.110016 -580.622540
-106.357324 -1116.857608 -580.577000
-107.328841 -1118.605201 -580.531461
-108.300359 -1120.352794 -580.485921
-109.271876 -1122.100386 -580.440381
-110.243393 -1123.847979 -580.394841
-111.214911 -1125.595572 -580.349301
-112.186428 -1127.343164 -580.303761
-113.157945 -1129.090757 -580.258221
-114.129463 -1130.838350 -580.212681
-115.100980 -1132.585942 -580.167142
-116.072497 -1134.333535 -580.121602
-117.044015 -1136.081128 -580.076062
-118.015532 -1137.828721 -580.030522
-118.987049 -1139.576313 -579.984982
-119.958567 -1141.323906 -579.939442
-120.930084 -1143.071499 -579.893902
-121.901601 -1144.819091 -579.848362
-122.873119 -1146.566684 -579.802823
-123.844636 -1148.314277 -579.757283
-124.816153 -1150.061869 -579.711743
-125.787671 -1151.809462 -579.666203
-126.759188 -1153.557055 -579.620663
-127.730705 -1155.304647 -579.575123
-128.702223 -1157.052240 -579.529583
-129.673740 -1158.799833 -579.484043
-130.645257 -1160.547426 -579.438504
-131.616775 -1162.295018 -579.392964
-132.588292 -1164.042611 -579.347424
-133.559809 -1165.790204 -579.301884
-134.531326 -1167.537796 -579.256344
-135.502844 -1169.285389 -579.210804
-136.474361 -1171.032982 -579.165264
-137.445878 -1172.780574 -579.119724
-138.417396 -1174.528167 -579.074185
-139.388913 -1176.275760 -579.028645
-140.360430 -1178.023352 -578.983105
-141.331948 -1179.770945 -578.937565
-142.303465 -1181.518538 -578.892025
-143.274982 -1183.266130 -578.846485
-144.246500 -1185.013723 -578.800945
-145.218017 -1186.761316 -578.755405
-146.189534 -1188.508909 -578.709866
-147.161052 -1190.256501 -578.664326
-148.132569 -1192.004094 -578.618786
-149.104086 -1193.751687 -578.573246
-150.075604 -1195.499279 -578.527706
-151.047121 -1197.246872 -578.482166
-152.018638 -1198.994465 -578.436626
-152.990156 -1200.742057 -578.391086
-153.961673 -1202.489650 -578.345547
-154.933190 -1204.237243 -578.300007
-155.904708 -1205.984835 -578.254467
-156.876225 -1207.732428 -578.208927
-157.847742 -1209.480021 -578.163387
-158.819260 -1211.227613 -578.117847
-159.790777 -1212.975206 -578.072307
-160.762294 -1214.722799 -578.026767
-161.733812 -1216.470392 -577.981228
-162.705329 -1218.217984 -577.935688
-163.676846 -1219.965577 -577.890148
-164.648364 -1221.713170 -577.844608
-165.619881 -1223.460762 -577.799068
-166.591398 -1225.208355 -577.753528
-167.562916 -1226.955948 -577.707988
-168.534433 -1228.703540 -577.662448
-169.505950 -1230.451133 -577.616909
-170.477468 -1232.198726 -577.571369
-171.448985 -1233.946318 -577.525829
-172.420502 -1235.693911 -577.480289
-173.392019 -1237.441504 -577.434749
-174.363537 -1239.189097 -577.389209
-175.335054 -1240.936689 -577.343669
-176.306571 -1242.684282 -577.298129
-177.278089 -1244.431875 -577.252590
-178.249606 -1246.179467 -577.207050
-179.221123 -1247.927060 -577.161510
-180.192641 -1249.674653 -577.115970
-181.164158 -1251.422245 -577.070430
-182.135675 -1253.169838 -577.024890
-183.107193 -1254.917431 -576.979350
-184.078710 -1256.665023 -576.933810
-185.050227 -1258.412616 -576.888271
-186.021745 -1260.160209 -576.842731
-186.993262 -1261.907801 -576.797191
-187.964779 -1263.655394 -576.751651
-188.936297 -1265.402987 -576.706111
-189.907814 -1267.150580 -576.660571
-190.879331 -1268.898172 -576.615031
-191.850849 -1270.645765 -576.569491
-192.822366 -1272.393358 -576.523952
-193.793883 -1274.140950 -576.478412
-194.765401 -1275.888543 -576.432872
-195.736918 -1277.636136 -576.387332
-196.708435 -1279.383728 -576.341792
-197.679953 -1281.131321 -576.296252
-198.651470 -1282.878914 -576.250712
-199.622987 -1284.626506 -576.205172
-200.594505 -1286.374099 -576.159633
-201.566022 -1288.121692 -576.114093
-202.537539 -1289.869284 -576.068553
-204.000000 -1292.500000 -576.000000
-204.000000 -1292.500000 -576.000000
-203.946584 -1294.494206 -575.857557
-203.893168 -1296.488412 -575.715113
-203.839751 -1298.482617 -575.572670
-203.786335 -1300.476823 -575.430227
-203.732919 -1302.471029 -575.287784
-203.679503 -1304.465235 -575.145340
-203.626086 -1306.459440 -575.002897
-203.572670 -1308.453646 -574.860454
-203.519254 -1310.447852 -574.718011
-203.465838 -1312.442058 -574.575567
-203.412422 -1314.436263 -574.433124
-203.359005 -1316.430469 -574.290681
-203.305589 -1318.424675 -574.148238
-203.252173 -1320.418881 -574.005794
-203.198757 -1322.413086 -573.863351
-203.145340 -1324.407292 -573.720908
-203.091924 -1326.401498 -573.578464
-203.038508 -1328.395704 -573.436021
-202.985092 -1330.389909 -573.293578
-202.931675 -1332.384115 -573.151135
-202.878259 -1334.378321 -573.008691
-202.824843 -1336.372527 -572.866248
-202.771427 -1338.366733 -572.723805
-202.718011 -1340.360938 -572.581362
-202.664594 -1342.355144 -572.438918
-202.611178 -1344.349350 -572.296475
-202.557762 -1346.343556 -572.154032
-202.504346 -1348.337761 -572.011588
-202.450929 -1350.331967 -571.869145
-202.397513 -1352.326173 -571.726702
-202.344097 -1354.320379 -571.584259
-202.290681 -1356.314584 -571.441815
-202.237265 -1358.308790 -571.299372
-202.183848 -1360.302996 -571.156929
-202.130432 -1362.297202 -571.014486
-202.077016 -1364.291407 -570.872042
-202.023600 -1366.285613 -570.729599
-201.970183 -1368.279819 -570.587156
-201.916767 -1370.274025 -570.444713
-201.863351 -1372.268230 -570.302269
-201.809935 -1374.262436 -570.159826
-201.756519 -1376.256642 -570.017383
-201.703102 -1378.250848 -569.874939
-201.649686 -1380.245054 -569.732496
-201.596270 -1382.239259 -569.590053
-201.542854 -1384.233465 -569.447610
-201.489437 -1386.227671 -569.305166
-201.436021 -1388.221877 -569.162723
-201.382605 -1390.216082 -569.020280
-201.329189 -1392.210288 -568.877837
-201.275772 -1394.204494 -568.735393
-201.222356 -1396.198700 -568.592950
-201.168940 -1398.192905 -568.450507
-201.115524 -1400.187111 -568.308063
-201.062108 -1402.181317 -568.165620
-201.008691 -1404.175523 -568.023177
-200.955275 -1406.169728 -567.880734
-200.901859 -1408.163934 -567.738290
-200.848443 -1410.158140 -567.595847
-200.795026 -1412.152346 -567.453404
-200.741610 -1414.146551 -567.310961
-200.688194 -1416.140757 -567.168517
-200.634778 -1418.134963 -567.026074
-200.581362 -1420.129169 -566.883631
